ncols        271
nrows        62
xllcorner    -74
yllcorner    -16.3333333333
cellsize     0.166666666667
NODATA_value -99999
-99999 -99999 -99999 -99999 162 185 187 173 168 163 157 151 178 162 151 178 171 164 180 157 146 190 191 194 168 148 144 154 176 168 158 161 153 151 152 129 102 114 132 127 125 118 119 122 118 115 110 106 107 106 100 93 88 83 75 64 66 59 62 75 67 73 69 61 72 72 72 70 68 68 62 60 52 49 64 67 65 62 60 57 61 61 51 60 79 95 87 79 102 85 131 126 152 165 196 175 187 143 129 134 181 213 187 196 185 190 206 286 264 248 325 303 309 288 248 246 239 246 242 226 242 251 303 291 287 241 273 255 201 213 248 291 291 245 281 332 344 349 286 277 482 551 558 428 258 274 225 157 148 159 148 177 238 175 135 185 226 256 207 156 176 195 236 293 301 271 248 276 319 311 274 279 280 286 280 231 251 231 223 303 242 254 248 277 179 167 165 230 223 238 254 178 190 314 406 333 459 588 725 594 497 447 431 495 504 408 401 333 285 260 258 173 322 484 219 332 415 215 221 165 240 186 206 462 544 569 413 310 228 155 125 89 56 33 -99999 -99999 -99999 -99999 -99999 -99999 -99999 -99999 -99999 -99999 -99999 -99999 -99999 -99999 -99999 -99999 -99999 -99999 -99999 -99999 -99999 -99999 -99999 -99999 -99999 -99999 -99999 -99999 -99999 -99999 -99999 -99999 -99999 -99999 -99999 -99999 -99999
-99999 -99999 -99999 -99999 167 192 196 179 175 161 168 160 188 169 164 193 166 180 169 169 157 185 201 183 164 155 153 169 182 171 176 160 161 152 139 109 109 132 131 124 121 122 124 118 117 114 106 103 98 100 99 97 92 89 63 71 70 59 65 79 70 76 71 62 73 75 74 71 69 67 52 49 45 61 70 70 66 63 63 60 65 61 66 63 72 105 106 106 100 90 133 143 185 128 122 129 127 106 122 138 166 237 283 236 260 230 185 225 235 225 288 327 281 278 274 253 237 241 251 225 255 294 254 250 295 266 259 266 217 211 279 283 280 250 261 284 349 355 262 243 322 587 466 401 301 275 225 156 166 180 160 189 235 206 154 199 225 281 258 179 193 208 225 273 291 255 288 299 351 316 324 375 346 361 297 301 363 288 335 339 273 340 360 271 196 222 182 160 276 299 248 199 213 267 324 320 461 578 736 609 489 448 395 417 477 427 328 276 235 217 231 176 542 496 279 251 349 355 201 165 136 191 338 316 390 409 494 299 224 174 120 96 72 36 -99999 -99999 -99999 -99999 -99999 -99999 -99999 -99999 -99999 -99999 -99999 -99999 -99999 -99999 -99999 -99999 -99999 -99999 -99999 -99999 -99999 -99999 -99999 -99999 -99999 -99999 -99999 -99999 -99999 -99999 -99999 -99999 -99999 -99999 -99999 -99999 -99999
-99999 -99999 -99999 -99999 -99999 179 203 183 171 182 185 174 192 163 185 183 178 178 177 173 182 203 195 191 174 168 164 155 157 152 149 149 145 135 123 117 120 136 134 130 126 123 113 112 110 116 113 106 87 78 78 77 76 73 68 74 71 58 69 78 76 78 72 71 63 75 72 60 54 47 48 57 70 64 70 68 68 67 65 67 63 62 91 77 94 105 127 116 110 95 130 157 170 151 116 96 110 130 141 128 199 257 247 222 297 282 250 268 250 226 218 229 263 243 238 228 260 242 256 229 255 313 284 244 300 270 221 231 220 209 221 220 357 335 288 277 269 301 269 296 274 406 435 311 303 307 236 159 188 188 191 171 153 208 156 196 300 291 230 177 214 260 296 394 298 289 357 306 389 420 395 381 380 347 347 409 364 269 354 358 300 417 319 265 287 239 169 175 226 317 287 307 274 357 448 396 426 557 637 641 492 432 421 367 395 443 329 255 247 239 202 259 588 460 329 349 335 270 213 160 167 178 255 260 396 422 592 396 284 298 144 92 84 38 31 -99999 -99999 -99999 -99999 -99999 -99999 -99999 -99999 -99999 -99999 -99999 -99999 -99999 -99999 -99999 -99999 -99999 -99999 -99999 -99999 -99999 -99999 -99999 -99999 -99999 -99999 -99999 -99999 -99999 -99999 -99999 -99999 -99999 -99999 -99999 -99999
-99999 -99999 -99999 194 181 202 196 174 191 203 197 189 179 187 201 199 199 195 186 198 202 206 194 181 162 137 131 127 123 123 125 122 122 122 119 123 139 142 141 138 137 133 126 118 104 100 91 89 97 99 100 95 91 78 76 75 68 59 76 80 77 80 74 79 68 78 70 60 56 48 60 63 70 66 70 68 71 69 74 80 69 60 99 89 132 120 113 135 119 91 132 150 130 118 146 178 131 163 155 128 167 267 238 220 317 321 255 231 231 253 231 237 254 261 241 254 271 253 250 242 244 322 285 283 274 252 224 241 319 259 216 235 236 251 242 232 261 297 314 316 299 293 278 242 252 283 234 167 206 185 191 164 167 242 170 192 341 304 220 186 203 256 348 416 347 327 410 323 451 453 474 505 487 459 424 375 359 283 350 323 300 282 321 318 251 238 157 174 175 224 348 347 355 440 496 501 426 562 691 746 615 528 507 481 383 343 300 300 312 269 246 347 346 329 330 340 367 252 192 204 196 202 217 257 408 544 555 492 489 431 221 127 128 74 32 -99999 -99999 -99999 -99999 -99999 -99999 -99999 -99999 -99999 -99999 -99999 -99999 -99999 -99999 -99999 -99999 -99999 -99999 -99999 -99999 -99999 -99999 -99999 -99999 -99999 -99999 -99999 -99999 -99999 -99999 -99999 -99999 -99999 -99999 -99999 -99999
-99999 204 207 193 196 221 203 186 217 226 210 188 185 218 219 206 198 179 174 166 153 146 140 134 131 133 152 149 149 148 142 137 133 132 141 148 147 143 139 128 123 119 115 112 106 101 113 109 105 107 102 99 96 78 79 72 63 67 80 84 80 83 76 78 73 68 60 55 50 49 64 62 66 68 69 70 73 71 85 77 74 63 102 87 138 156 125 163 153 92 121 151 148 147 234 233 181 187 162 144 174 261 242 240 311 288 255 243 264 265 231 238 317 297 243 239 276 263 253 250 231 257 312 318 292 271 247 305 337 325 396 341 233 221 215 230 271 295 319 370 312 292 289 252 264 260 200 196 205 165 157 155 180 220 189 232 320 322 223 213 237 279 345 386 385 399 400 432 523 532 479 441 416 356 323 325 360 379 304 213 202 195 180 192 161 154 169 204 172 179 236 282 352 463 505 467 437 551 618 642 597 614 578 439 401 424 402 344 363 285 263 286 294 260 242 247 237 211 258 234 223 255 266 354 381 570 580 497 427 435 350 146 103 88 26 -99999 -99999 -99999 -99999 -99999 -99999 -99999 -99999 -99999 -99999 -99999 -99999 -99999 -99999 -99999 -99999 -99999 -99999 -99999 -99999 -99999 -99999 -99999 -99999 -99999 -99999 -99999 -99999 -99999 -99999 -99999 -99999 -99999 -99999 -99999 -99999
-99999 232 234 221 223 233 208 214 243 235 207 196 210 207 205 176 158 157 160 156 160 161 160 159 156 145 178 174 184 171 160 159 156 155 152 145 140 133 129 124 131 132 127 124 120 119 111 110 112 104 100 95 89 82 79 70 65 79 74 85 86 82 80 80 78 63 65 54 45 56 66 66 67 68 71 77 90 78 81 94 71 91 115 113 159 166 149 182 144 90 102 143 209 142 223 249 220 217 164 138 168 240 239 259 300 276 269 267 299 277 233 235 261 255 242 251 284 304 257 253 263 244 274 291 321 283 282 342 308 241 253 235 290 273 226 244 259 308 458 514 390 324 311 271 277 229 197 198 194 164 195 179 183 223 210 246 324 335 228 243 264 309 313 328 387 421 473 456 366 368 329 385 421 362 315 349 361 307 237 247 241 213 202 177 204 194 220 221 190 210 191 214 333 448 516 376 322 441 435 447 482 601 548 453 442 583 429 450 427 326 308 355 332 310 313 264 231 255 277 261 256 293 386 596 533 588 600 549 512 515 289 91 83 83 41 6 -99999 -99999 -99999 -99999 -99999 -99999 -99999 -99999 -99999 -99999 -99999 -99999 -99999 -99999 -99999 -99999 -99999 -99999 -99999 -99999 -99999 -99999 -99999 -99999 -99999 -99999 -99999 -99999 -99999 -99999 -99999 -99999 -99999 -99999 -99999
-99999 312 246 231 228 227 211 205 211 216 220 209 193 169 163 168 182 201 204 179 197 203 188 173 178 143 181 195 173 158 168 175 170 163 158 158 155 147 138 139 140 135 133 132 126 122 113 115 106 111 107 101 99 85 76 68 72 87 76 85 88 83 85 81 67 66 58 53 62 68 65 67 68 73 74 90 89 81 83 79 96 105 106 127 135 147 169 195 185 112 85 120 169 183 149 169 212 247 248 168 184 233 224 265 317 289 245 289 273 250 240 240 316 248 263 281 254 311 274 262 262 255 303 341 302 260 247 279 256 242 256 245 246 237 234 245 327 366 446 475 436 361 307 276 254 224 190 206 168 191 212 193 230 259 223 258 312 256 213 320 301 317 334 342 413 485 445 440 477 346 270 250 257 232 264 237 289 277 254 313 287 240 202 207 224 208 224 210 197 209 246 236 234 325 353 247 364 398 401 425 507 587 606 565 589 593 516 500 470 372 341 393 424 408 421 288 267 312 328 306 271 378 578 596 567 549 554 607 644 438 176 115 95 77 32 24 -99999 -99999 -99999 -99999 -99999 -99999 -99999 -99999 -99999 -99999 -99999 -99999 -99999 -99999 -99999 -99999 -99999 -99999 -99999 -99999 -99999 -99999 -99999 -99999 -99999 -99999 -99999 -99999 -99999 -99999 -99999 -99999 -99999 -99999 -99999
-99999 391 259 239 227 221 201 195 195 192 184 175 176 188 188 202 202 213 189 198 231 218 180 187 154 166 169 178 162 162 159 154 156 172 167 161 155 154 147 149 146 140 130 132 130 124 120 116 114 113 109 108 97 76 69 72 84 89 80 86 88 84 87 84 69 67 53 64 74 73 67 73 73 76 83 101 90 86 92 88 85 120 169 173 154 165 146 176 176 102 92 108 187 149 143 127 156 248 287 233 229 228 261 268 296 272 249 283 264 273 290 234 310 300 252 270 278 286 294 273 270 261 255 336 365 304 288 295 240 302 338 312 293 239 245 247 283 289 283 336 352 396 310 239 238 208 172 189 163 190 229 204 276 302 227 256 223 193 190 221 280 305 388 438 465 419 385 320 342 300 259 245 274 261 301 289 263 318 340 391 330 254 214 242 244 229 244 226 202 228 233 244 234 252 241 298 336 362 404 502 648 703 753 740 852 789 906 640 402 405 406 484 637 610 455 320 313 304 456 604 668 659 593 524 511 495 498 503 512 349 211 128 74 97 52 33 -99999 -99999 -99999 -99999 -99999 -99999 -99999 -99999 -99999 -99999 -99999 -99999 -99999 -99999 -99999 -99999 -99999 -99999 -99999 -99999 -99999 -99999 -99999 -99999 -99999 -99999 -99999 -99999 -99999 -99999 -99999 -99999 -99999 -99999 -99999
287 324 247 229 220 212 205 214 207 184 185 197 197 209 203 211 223 199 222 225 213 198 191 160 168 177 169 174 168 168 175 184 161 150 145 145 141 138 152 151 147 140 136 124 123 117 120 120 114 109 102 91 77 79 65 84 83 90 83 84 88 85 84 83 69 63 59 72 75 77 75 77 77 91 92 103 90 93 93 87 83 126 179 185 202 157 152 199 198 142 114 134 199 164 135 134 130 175 235 285 266 254 301 288 283 292 250 285 285 272 294 251 298 319 292 249 261 294 304 309 289 299 246 296 312 333 316 285 264 346 486 475 329 254 315 295 262 323 346 378 433 456 294 240 273 209 178 197 165 223 234 224 268 280 260 274 253 224 209 189 215 254 288 322 351 347 317 270 273 266 277 310 309 325 297 285 325 363 395 382 342 250 225 307 298 267 300 266 212 267 276 266 247 279 290 268 353 314 377 619 756 819 824 838 864 800 904 868 794 625 383 409 589 525 342 327 407 554 730 740 671 645 612 540 485 469 451 435 399 289 186 203 125 110 50 33 -99999 -99999 -99999 -99999 -99999 -99999 -99999 -99999 -99999 -99999 -99999 -99999 -99999 -99999 -99999 -99999 -99999 -99999 -99999 -99999 -99999 -99999 -99999 -99999 -99999 -99999 -99999 -99999 -99999 -99999 -99999 -99999 -99999 -99999 -99999
288 300 258 245 234 236 199 199 189 188 214 222 199 223 230 224 206 221 246 233 211 180 176 168 190 178 187 176 172 165 176 162 167 166 175 172 164 156 136 129 138 140 133 118 102 94 94 102 111 109 99 79 87 84 75 88 87 88 83 87 87 83 83 78 76 58 60 77 79 80 79 80 81 91 103 98 90 98 104 84 99 146 131 134 163 204 179 218 224 175 182 132 161 152 138 156 135 138 142 202 300 305 300 301 318 277 272 286 296 297 264 251 246 307 276 262 289 285 327 326 295 287 271 267 309 323 286 271 290 332 483 451 343 323 264 314 276 402 466 443 412 472 290 262 218 192 201 181 182 205 213 225 301 280 247 240 216 204 197 196 210 234 267 278 324 337 342 273 295 322 354 337 333 339 365 313 371 381 447 415 317 285 254 348 358 289 336 283 215 223 244 280 257 299 317 290 281 305 394 603 724 697 722 654 805 523 569 808 795 528 439 542 481 421 445 520 629 722 632 588 599 623 594 550 513 459 431 404 371 362 389 336 121 67 38 20 -99999 -99999 -99999 -99999 -99999 -99999 -99999 -99999 -99999 -99999 -99999 -99999 -99999 -99999 -99999 -99999 -99999 -99999 -99999 -99999 -99999 -99999 -99999 -99999 -99999 -99999 -99999 -99999 -99999 -99999 -99999 -99999 -99999 -99999 -99999
252 336 285 249 245 244 230 215 189 208 220 218 212 241 229 216 229 248 226 213 188 210 193 176 192 192 190 173 180 173 169 190 193 189 188 179 166 155 152 147 132 113 104 106 109 112 108 98 90 86 83 87 90 78 91 91 90 89 85 90 85 81 83 81 78 63 66 80 83 82 85 87 82 82 109 116 98 99 97 101 87 102 102 106 125 197 187 224 210 230 178 150 139 155 136 156 146 152 150 147 268 335 368 316 291 261 272 295 329 289 280 257 250 274 266 269 273 276 329 318 323 316 298 282 315 355 307 288 268 294 364 304 299 437 430 349 316 328 365 386 385 378 301 231 203 181 190 188 167 193 196 232 305 254 228 223 194 191 199 227 231 255 261 270 307 417 382 345 315 394 379 347 414 399 379 349 388 440 479 418 336 239 310 398 376 358 351 281 230 263 239 275 297 254 296 350 325 358 425 555 667 540 546 509 521 494 463 511 546 499 526 564 634 589 695 799 648 579 567 575 633 623 562 516 490 489 512 493 450 441 371 191 111 107 41 9 -99999 -99999 -99999 -99999 -99999 -99999 -99999 -99999 -99999 -99999 -99999 -99999 -99999 -99999 -99999 -99999 -99999 -99999 -99999 -99999 -99999 -99999 -99999 -99999 -99999 -99999 -99999 -99999 -99999 -99999 -99999 -99999 -99999 -99999 -99999
-99999 293 290 253 233 225 214 203 201 218 234 214 236 252 232 233 262 258 222 222 205 221 192 177 186 203 181 189 174 191 177 212 203 185 184 182 171 161 154 142 129 110 119 133 132 130 126 117 111 100 97 103 90 96 99 89 88 91 87 90 84 84 84 83 80 71 62 85 87 87 91 88 100 99 112 112 106 106 119 130 105 104 98 119 142 192 183 200 202 197 177 196 169 147 151 158 151 137 155 153 191 308 395 349 288 306 289 287 307 302 292 266 265 293 262 277 279 293 315 368 369 319 298 290 283 289 297 289 300 332 313 402 469 490 458 318 270 291 287 289 317 287 237 212 200 190 197 218 184 175 185 225 315 247 246 208 197 220 222 253 243 282 313 311 311 417 364 413 344 427 295 399 416 439 413 407 414 467 476 450 351 254 396 423 381 412 386 268 267 288 272 264 317 334 285 315 336 361 398 458 584 521 481 457 445 448 439 455 472 504 540 522 517 482 554 595 522 594 660 648 682 616 572 552 580 531 484 521 406 356 257 158 129 106 54 7 -99999 -99999 -99999 -99999 -99999 -99999 -99999 -99999 -99999 -99999 -99999 -99999 -99999 -99999 -99999 -99999 -99999 -99999 -99999 -99999 -99999 -99999 -99999 -99999 -99999 -99999 -99999 -99999 -99999 -99999 -99999 -99999 -99999 -99999 -99999
-99999 258 314 258 250 248 228 205 215 232 247 224 246 254 244 262 257 242 240 201 215 207 186 203 185 199 188 194 176 201 182 206 178 172 162 171 170 161 155 146 125 120 129 140 138 128 119 116 111 115 110 98 90 101 103 96 92 92 91 88 91 84 85 77 82 66 67 86 92 91 91 88 101 113 111 137 114 104 127 135 120 105 114 108 128 174 144 153 195 244 192 232 149 164 147 170 168 130 170 163 200 341 406 420 395 423 319 296 311 305 286 266 275 279 277 271 303 318 303 404 376 306 302 295 312 286 343 279 281 341 342 448 578 502 332 279 289 354 313 317 356 301 247 295 203 217 195 235 178 184 202 262 350 220 213 199 206 237 255 261 266 326 331 377 389 395 389 495 388 442 295 420 504 470 468 422 482 456 544 431 322 265 386 446 410 408 309 271 249 294 299 292 337 381 351 325 350 396 433 540 679 549 469 432 427 415 422 412 433 465 541 499 449 438 508 535 567 635 549 544 607 642 604 733 763 609 529 453 427 401 273 229 193 106 24 -99999 -99999 -99999 -99999 -99999 -99999 -99999 -99999 -99999 -99999 -99999 -99999 -99999 -99999 -99999 -99999 -99999 -99999 -99999 -99999 -99999 -99999 -99999 -99999 -99999 -99999 -99999 -99999 -99999 -99999 -99999 -99999 -99999 -99999 -99999 -99999
-99999 -99999 256 244 235 228 224 216 215 224 250 235 263 265 267 281 269 238 219 206 225 187 206 204 190 203 197 186 188 190 194 201 190 180 189 175 164 171 165 152 118 131 140 142 138 129 125 123 124 116 103 105 103 104 104 99 95 93 95 89 90 88 86 66 71 78 87 85 95 93 93 93 85 87 103 139 122 110 119 135 119 111 137 113 120 111 113 151 200 226 206 219 147 184 185 152 179 156 167 161 273 370 401 480 480 521 519 495 359 331 284 269 308 275 345 288 289 323 318 363 320 295 301 300 309 295 294 270 316 299 396 455 562 464 302 292 301 384 453 402 301 223 213 223 199 193 191 243 177 193 208 294 385 238 225 224 232 248 301 296 291 316 345 439 422 434 374 512 413 352 350 448 546 496 400 450 538 490 545 470 366 283 402 437 452 395 320 324 296 261 280 346 346 422 391 369 393 408 460 585 575 540 509 445 401 389 424 397 421 472 548 571 428 414 482 501 511 524 488 519 592 712 789 911 762 813 602 629 587 597 545 429 219 85 17 -99999 -99999 -99999 -99999 -99999 -99999 -99999 -99999 -99999 -99999 -99999 -99999 -99999 -99999 -99999 -99999 -99999 -99999 -99999 -99999 -99999 -99999 -99999 -99999 -99999 -99999 -99999 -99999 -99999 -99999 -99999 -99999 -99999 -99999 -99999 -99999
-99999 -99999 271 276 268 250 231 220 230 241 257 256 286 282 287 264 245 254 240 222 209 208 220 215 197 208 209 197 204 208 203 192 189 205 185 176 167 157 160 131 129 145 147 143 134 130 129 130 123 108 113 113 106 111 106 101 96 97 98 93 90 86 72 71 91 92 91 92 90 97 95 94 85 88 102 115 133 138 117 131 130 115 135 120 117 112 129 158 235 238 227 175 177 195 224 163 166 178 148 173 311 329 384 418 463 504 542 571 560 491 357 289 291 277 298 287 290 337 343 352 327 303 310 295 345 305 323 279 281 324 433 500 527 478 311 293 323 314 352 327 252 224 211 197 188 196 210 182 183 201 224 329 345 243 244 215 252 235 256 288 305 311 370 502 476 479 432 546 440 318 424 507 515 442 434 375 473 583 526 457 315 321 469 480 469 415 340 408 346 316 281 342 377 374 401 419 475 501 557 533 503 461 444 475 411 375 386 373 368 397 447 513 386 396 452 431 471 477 473 549 636 730 785 731 700 647 595 601 515 576 500 219 137 56 15 -99999 -99999 -99999 -99999 -99999 -99999 -99999 -99999 -99999 -99999 -99999 -99999 -99999 -99999 -99999 -99999 -99999 -99999 -99999 -99999 -99999 -99999 -99999 -99999 -99999 -99999 -99999 -99999 -99999 -99999 -99999 -99999 -99999 -99999 -99999 -99999
-99999 -99999 -99999 264 278 259 235 229 248 256 279 288 313 303 272 272 286 266 227 237 207 232 235 219 205 214 211 219 218 211 212 214 187 181 175 168 171 165 147 129 131 150 146 139 144 140 139 133 127 113 114 117 111 106 106 109 103 98 100 97 88 76 71 93 99 102 101 96 98 93 98 90 90 105 126 133 125 122 122 146 131 121 139 130 126 125 122 118 156 254 217 147 232 204 294 180 191 179 149 158 236 225 285 309 364 395 427 453 490 505 511 373 295 288 300 313 286 341 374 332 314 313 326 298 326 346 340 307 283 269 289 357 368 437 330 315 387 429 295 254 232 219 215 204 198 204 201 174 194 209 246 295 381 252 234 217 246 261 262 295 318 330 419 523 479 409 470 534 427 324 423 377 483 446 391 496 526 579 492 357 317 404 509 516 505 421 466 490 452 376 398 307 329 371 479 480 482 527 520 480 460 472 437 423 406 377 356 347 335 351 365 363 341 367 388 491 578 511 442 613 810 674 529 727 748 645 584 543 447 373 237 135 91 30 -99999 -99999 -99999 -99999 -99999 -99999 -99999 -99999 -99999 -99999 -99999 -99999 -99999 -99999 -99999 -99999 -99999 -99999 -99999 -99999 -99999 -99999 -99999 -99999 -99999 -99999 -99999 -99999 -99999 -99999 -99999 -99999 -99999 -99999 -99999 -99999 -99999
-99999 -99999 -99999 -99999 271 280 250 237 255 277 293 311 311 279 280 299 264 240 244 230 217 237 224 221 223 228 227 209 192 176 174 182 193 179 185 199 190 176 161 130 126 146 144 153 150 139 135 128 115 123 125 133 112 105 103 111 104 106 105 97 83 85 89 90 101 106 102 102 116 108 99 93 98 124 138 134 129 119 125 125 178 118 144 159 139 139 142 119 150 245 159 162 241 216 285 204 287 229 184 198 204 192 223 218 257 275 328 316 328 422 501 543 575 465 405 460 346 378 355 333 325 331 315 299 317 379 330 283 276 296 276 369 354 404 367 309 339 471 326 293 231 218 223 201 180 190 174 193 206 210 244 358 388 261 235 220 270 274 277 315 346 359 452 483 438 460 493 445 351 393 478 417 464 515 437 504 600 461 371 327 347 498 573 556 550 494 552 544 556 482 370 307 341 400 486 607 538 504 469 454 434 463 446 423 381 361 384 386 335 322 317 322 324 344 394 537 553 434 456 676 637 485 491 753 830 738 657 683 549 270 157 113 82 35 -99999 -99999 -99999 -99999 -99999 -99999 -99999 -99999 -99999 -99999 -99999 -99999 -99999 -99999 -99999 -99999 -99999 -99999 -99999 -99999 -99999 -99999 -99999 -99999 -99999 -99999 -99999 -99999 -99999 -99999 -99999 -99999 -99999 -99999 -99999 -99999 -99999
-99999 -99999 -99999 -99999 -99999 272 268 242 259 271 291 324 297 297 288 262 259 267 247 244 220 250 245 235 239 235 214 192 185 203 197 171 171 204 207 193 163 140 136 136 131 154 155 149 144 149 137 135 127 129 125 123 119 109 120 116 105 104 106 93 99 99 101 95 95 110 106 111 104 112 107 107 107 124 117 135 123 129 128 130 153 128 141 175 163 151 145 122 130 183 215 250 226 230 256 198 240 219 214 176 183 196 216 201 210 244 260 268 330 387 463 519 551 527 497 542 469 377 371 332 340 319 302 298 307 344 322 295 300 299 277 284 373 400 403 327 337 437 343 361 268 232 221 202 185 167 184 190 207 227 280 313 362 252 235 226 250 265 283 306 321 363 499 455 504 509 451 395 352 430 472 468 557 466 426 574 466 395 300 425 399 487 602 597 598 596 594 496 412 342 314 342 395 477 552 542 476 454 466 434 409 411 397 428 368 407 445 392 351 337 384 361 318 349 401 451 453 445 540 557 464 421 467 744 811 756 624 504 489 288 139 93 70 24 -99999 -99999 -99999 -99999 -99999 -99999 -99999 -99999 -99999 -99999 -99999 -99999 -99999 -99999 -99999 -99999 -99999 -99999 -99999 -99999 -99999 -99999 -99999 -99999 -99999 -99999 -99999 -99999 -99999 -99999 -99999 -99999 -99999 -99999 -99999 -99999 -99999
-99999 -99999 -99999 -99999 -99999 267 268 255 271 283 287 311 305 317 288 281 287 277 255 233 238 254 237 215 211 202 200 212 211 191 176 164 153 160 160 150 155 162 158 139 154 168 153 150 153 148 174 161 164 141 144 134 130 133 148 125 103 98 94 112 102 107 109 109 101 113 113 121 116 121 122 128 123 127 128 139 135 146 155 145 156 131 130 143 179 153 134 119 138 151 166 235 223 228 239 244 247 330 261 213 206 178 188 195 218 226 243 248 298 354 411 441 519 521 547 591 553 399 355 357 345 319 307 303 317 341 308 308 336 336 334 296 332 370 430 344 335 329 272 261 256 243 230 193 170 177 209 206 205 224 294 372 330 237 213 234 274 287 278 279 296 368 492 489 535 487 473 390 347 465 526 565 492 455 501 545 479 366 335 454 531 450 600 667 622 561 465 409 374 365 385 412 406 514 547 535 469 427 433 464 418 397 371 372 369 420 446 400 374 358 436 444 443 345 390 466 380 490 407 388 392 474 431 617 664 586 478 276 396 193 112 48 32 -99999 -99999 -99999 -99999 -99999 -99999 -99999 -99999 -99999 -99999 -99999 -99999 -99999 -99999 -99999 -99999 -99999 -99999 -99999 -99999 -99999 -99999 -99999 -99999 -99999 -99999 -99999 -99999 -99999 -99999 -99999 -99999 -99999 -99999 -99999 -99999 -99999 -99999
-99999 -99999 -99999 -99999 -99999 288 279 269 276 296 311 324 320 325 299 298 290 271 239 255 259 238 230 233 216 231 223 207 192 198 194 172 195 205 194 179 175 165 160 149 171 156 160 158 141 148 159 189 175 154 152 170 202 150 148 127 102 95 124 129 121 112 110 109 107 116 121 134 127 152 164 150 132 138 146 142 154 162 142 134 141 132 132 159 176 166 144 131 164 159 221 228 222 248 253 231 255 333 332 296 297 228 236 245 263 242 232 247 283 333 360 416 476 503 527 568 499 376 333 327 317 309 325 310 314 324 338 317 363 351 299 297 285 319 398 373 360 337 284 294 207 199 194 173 180 182 194 208 209 227 297 372 300 241 256 267 256 262 258 262 284 322 390 504 481 439 433 486 362 405 524 577 483 606 635 595 429 330 391 527 629 548 584 629 517 481 450 427 390 414 476 459 488 518 489 458 439 414 404 438 421 395 381 407 389 446 493 414 412 390 431 484 473 368 283 332 420 356 288 349 382 362 366 499 555 583 386 208 229 149 66 36 19 -99999 -99999 -99999 -99999 -99999 -99999 -99999 -99999 -99999 -99999 -99999 -99999 -99999 -99999 -99999 -99999 -99999 -99999 -99999 -99999 -99999 -99999 -99999 -99999 -99999 -99999 -99999 -99999 -99999 -99999 -99999 -99999 -99999 -99999 -99999 -99999 -99999 -99999
-99999 -99999 -99999 -99999 303 299 299 278 288 306 341 348 340 337 319 292 259 249 269 275 250 240 264 237 226 239 214 208 210 212 189 188 224 211 185 175 173 174 157 159 176 170 166 148 149 172 175 187 199 168 167 165 166 158 128 113 121 116 125 151 146 124 122 130 125 123 137 137 136 169 153 139 143 141 158 149 148 161 152 150 138 148 136 149 154 171 144 132 147 180 235 253 224 221 225 240 242 294 325 286 256 232 288 257 253 277 336 299 293 314 376 338 428 436 471 518 461 385 353 340 319 334 331 313 321 332 344 309 301 326 298 279 330 324 421 449 399 364 238 223 206 194 180 170 188 186 196 211 217 246 341 382 280 222 281 316 262 274 256 287 300 304 318 446 504 463 441 391 419 427 506 553 626 603 563 497 343 364 482 561 627 623 572 529 562 538 473 414 441 486 460 446 462 487 509 462 415 391 394 387 381 378 386 457 406 441 486 431 447 433 422 487 450 395 268 246 258 272 280 320 296 268 268 302 368 420 293 144 128 108 43 22 -99999 -99999 -99999 -99999 -99999 -99999 -99999 -99999 -99999 -99999 -99999 -99999 -99999 -99999 -99999 -99999 -99999 -99999 -99999 -99999 -99999 -99999 -99999 -99999 -99999 -99999 -99999 -99999 -99999 -99999 -99999 -99999 -99999 -99999 -99999 -99999 -99999 -99999 -99999
-99999 -99999 -99999 -99999 -99999 -99999 -99999 -99999 -99999 325 351 373 367 340 308 272 286 274 287 262 243 264 242 226 242 218 225 226 232 213 199 199 226 198 186 187 176 164 158 173 175 163 152 154 169 173 162 156 166 170 152 128 115 131 123 137 135 122 126 136 155 139 127 138 126 126 128 148 165 192 170 148 155 146 152 156 149 170 176 159 141 161 147 189 207 179 158 142 175 233 279 268 248 237 227 261 255 265 285 245 235 240 259 276 264 259 260 280 282 350 325 347 384 394 414 463 455 378 339 322 338 330 309 316 333 343 302 283 284 299 280 298 361 335 352 435 418 305 251 227 223 208 184 173 190 192 200 218 231 249 385 329 258 226 318 322 267 281 275 279 317 334 362 398 494 471 417 391 454 386 380 483 475 415 393 360 345 449 537 635 632 557 486 511 490 481 475 474 492 456 426 403 466 408 415 414 397 489 470 401 408 412 408 428 435 457 478 480 515 488 458 553 565 444 324 258 204 189 196 242 222 188 196 249 253 275 225 122 73 57 31 -99999 -99999 -99999 -99999 -99999 -99999 -99999 -99999 -99999 -99999 -99999 -99999 -99999 -99999 -99999 -99999 -99999 -99999 -99999 -99999 -99999 -99999 -99999 -99999 -99999 -99999 -99999 -99999 -99999 -99999 -99999 -99999 -99999 -99999 -99999 -99999 -99999 -99999 -99999 -99999
-99999 -99999 -99999 -99999 -99999 -99999 -99999 -99999 -99999 -99999 374 391 349 308 300 295 297 303 289 -99999 273 264 253 236 247 237 248 233 219 203 213 220 234 216 196 179 183 181 157 186 160 161 162 163 172 158 146 140 131 132 130 118 115 123 130 147 153 145 132 151 165 160 133 141 136 140 148 161 185 171 160 178 147 158 160 160 154 180 170 143 152 169 167 150 180 182 158 138 162 177 219 253 256 254 229 248 243 266 288 249 252 262 243 282 258 267 264 267 265 269 286 314 309 363 344 408 436 393 381 354 354 321 323 326 350 352 355 312 294 284 267 286 318 382 393 405 353 249 221 226 205 192 178 176 191 200 203 223 241 257 372 332 276 259 404 334 274 311 305 306 309 313 374 494 537 457 434 460 462 418 390 427 451 422 399 402 373 501 616 574 515 483 467 467 447 437 435 452 488 440 402 393 417 390 393 421 463 507 460 544 461 448 436 440 442 472 503 453 456 469 415 608 656 558 369 307 274 203 133 110 117 169 229 275 224 192 143 98 51 20 -99999 -99999 -99999 -99999 -99999 -99999 -99999 -99999 -99999 -99999 -99999 -99999 -99999 -99999 -99999 -99999 -99999 -99999 -99999 -99999 -99999 -99999 -99999 -99999 -99999 -99999 -99999 -99999 -99999 -99999 -99999 -99999 -99999 -99999 -99999 -99999 -99999 -99999 -99999 -99999 -99999
-99999 -99999 -99999 -99999 -99999 -99999 -99999 -99999 -99999 -99999 350 375 331 328 328 325 324 301 -99999 -99999 287 268 258 251 256 258 231 218 214 227 217 230 214 209 200 201 177 156 168 172 174 172 167 162 141 142 148 -99999 -99999 -99999 134 -99999 131 141 138 158 178 164 146 163 173 163 172 184 164 131 144 170 185 178 178 162 158 165 175 172 169 182 160 155 159 178 194 161 211 197 164 164 150 177 186 224 259 279 236 249 258 248 264 277 268 277 240 261 267 281 273 288 271 267 264 278 298 284 317 367 360 402 422 363 324 331 323 352 329 344 316 301 306 289 275 310 320 337 407 406 305 239 227 225 218 195 173 177 182 190 197 212 227 258 336 373 274 278 487 394 285 291 278 287 301 315 353 382 479 599 518 482 473 439 430 442 453 436 461 436 366 402 430 424 442 485 500 469 441 426 416 420 425 420 391 445 511 576 541 678 694 750 673 586 547 597 489 447 467 514 492 459 421 410 402 448 532 556 390 347 344 253 248 172 106 91 157 191 180 153 112 67 47 -99999 -99999 -99999 -99999 -99999 -99999 -99999 -99999 -99999 -99999 -99999 -99999 -99999 -99999 -99999 -99999 -99999 -99999 -99999 -99999 -99999 -99999 -99999 -99999 -99999 -99999 -99999 -99999 -99999 -99999 -99999 -99999 -99999 -99999 -99999 -99999 -99999 -99999 -99999 -99999 -99999 -99999
-99999 -99999 -99999 -99999 -99999 -99999 -99999 -99999 -99999 -99999 360 379 -99999 363 346 346 -99999 -99999 -99999 -99999 290 264 262 268 266 241 233 236 224 221 239 219 207 195 187 177 164 169 186 180 180 180 156 157 -99999 -99999 -99999 -99999 -99999 -99999 -99999 -99999 137 158 164 173 186 156 151 171 183 159 199 207 167 139 155 193 201 197 172 161 165 191 230 191 212 213 159 167 145 171 194 182 237 195 171 174 171 173 168 230 233 249 229 268 289 277 257 302 290 261 244 277 279 287 290 299 278 293 266 272 280 267 293 300 344 396 404 365 345 342 350 335 318 315 291 322 327 310 284 275 282 288 300 325 276 238 233 216 199 180 174 177 183 194 206 213 228 264 375 334 278 241 494 492 338 317 310 273 295 294 346 397 494 570 559 590 456 483 559 532 566 485 427 413 416 400 380 411 442 529 515 510 475 445 428 412 402 401 442 475 608 564 463 561 854 876 700 524 638 773 594 488 490 484 533 530 454 473 466 604 477 387 298 293 310 290 223 188 158 149 73 100 81 99 67 38 -99999 -99999 -99999 -99999 -99999 -99999 -99999 -99999 -99999 -99999 -99999 -99999 -99999 -99999 -99999 -99999 -99999 -99999 -99999 -99999 -99999 -99999 -99999 -99999 -99999 -99999 -99999 -99999 -99999 -99999 -99999 -99999 -99999 -99999 -99999 -99999 -99999 -99999 -99999 -99999 -99999 -99999 -99999
-99999 -99999 -99999 -99999 -99999 -99999 -99999 -99999 -99999 -99999 -99999 -99999 -99999 -99999 -99999 -99999 -99999 -99999 -99999 -99999 277 282 279 274 262 268 253 236 249 254 256 233 223 205 212 198 186 184 192 181 156 158 169 -99999 -99999 -99999 -99999 -99999 -99999 -99999 -99999 164 137 164 173 182 176 165 163 182 196 164 199 223 167 165 170 183 201 170 156 171 175 193 261 229 229 177 163 169 149 169 197 209 250 230 267 272 285 233 221 216 259 231 241 249 279 306 295 384 381 313 255 282 301 302 326 304 276 264 268 270 268 274 274 300 352 360 382 408 385 354 340 342 320 300 291 304 319 312 292 280 303 295 308 313 248 223 211 214 199 178 175 175 180 186 194 223 243 284 333 355 303 235 393 541 351 319 344 299 312 350 357 427 424 549 679 778 688 735 791 600 616 568 452 372 400 447 452 521 527 568 539 564 523 490 461 434 411 397 400 404 412 429 696 930 941 861 600 535 662 800 789 517 472 418 461 563 530 498 540 673 592 469 314 249 248 308 258 219 214 175 70 37 51 42 40 -99999 -99999 -99999 -99999 -99999 -99999 -99999 -99999 -99999 -99999 -99999 -99999 -99999 -99999 -99999 -99999 -99999 -99999 -99999 -99999 -99999 -99999 -99999 -99999 -99999 -99999 -99999 -99999 -99999 -99999 -99999 -99999 -99999 -99999 -99999 -99999 -99999 -99999 -99999 -99999 -99999 -99999 -99999 -99999
-99999 -99999 -99999 -99999 -99999 -99999 -99999 -99999 -99999 -99999 -99999 -99999 -99999 -99999 -99999 -99999 -99999 -99999 -99999 -99999 293 305 305 290 275 250 251 276 284 278 265 260 237 236 223 200 188 203 206 176 161 174 -99999 -99999 -99999 -99999 -99999 -99999 -99999 -99999 -99999 136 151 163 175 198 179 193 198 193 221 179 222 242 186 220 208 226 193 172 184 181 191 186 220 243 258 163 193 188 153 191 223 275 237 260 304 292 298 361 334 263 250 248 242 288 454 387 388 351 328 325 316 332 355 348 335 285 266 280 273 276 292 308 313 290 292 369 411 428 387 341 326 322 316 297 296 306 320 301 284 305 293 264 289 332 328 243 231 237 210 179 176 177 179 181 192 210 241 304 307 279 335 242 306 562 387 350 332 329 336 421 422 418 511 548 665 741 776 778 794 768 541 473 409 399 434 509 500 581 640 626 575 601 516 499 494 463 414 406 404 411 418 508 897 1034 890 659 543 545 688 817 703 474 456 382 419 444 458 479 483 519 505 463 347 247 212 273 263 208 188 150 115 124 20 6 7 -99999 -99999 -99999 -99999 -99999 -99999 -99999 -99999 -99999 -99999 -99999 -99999 -99999 -99999 -99999 -99999 -99999 -99999 -99999 -99999 -99999 -99999 -99999 -99999 -99999 -99999 -99999 -99999 -99999 -99999 -99999 -99999 -99999 -99999 -99999 -99999 -99999 -99999 -99999 -99999 -99999 -99999 -99999 -99999
-99999 -99999 -99999 -99999 -99999 -99999 -99999 -99999 -99999 -99999 -99999 -99999 -99999 -99999 -99999 -99999 -99999 -99999 -99999 -99999 323 320 307 280 267 272 293 294 262 253 240 226 222 206 199 196 204 206 200 -99999 -99999 -99999 -99999 -99999 -99999 -99999 -99999 -99999 -99999 -99999 -99999 138 145 162 180 237 246 306 270 306 244 225 299 257 203 238 270 217 182 232 221 190 190 181 236 243 220 171 185 196 186 222 258 288 249 331 308 282 312 368 406 365 267 252 286 304 398 453 399 353 345 331 324 317 337 373 321 301 277 287 278 287 297 335 365 333 312 370 408 410 367 345 339 332 329 296 320 304 320 306 283 275 243 228 251 285 368 241 212 212 190 179 178 178 180 181 193 220 248 312 297 332 355 241 266 434 460 385 355 369 381 400 487 438 574 543 653 712 748 749 764 756 553 446 417 463 571 651 635 607 614 606 542 627 558 493 471 452 468 455 413 419 431 488 834 900 864 657 542 654 785 755 539 432 419 375 385 410 416 396 364 413 372 398 327 320 305 205 206 216 146 103 54 48 9 7 -99999 -99999 -99999 -99999 -99999 -99999 -99999 -99999 -99999 -99999 -99999 -99999 -99999 -99999 -99999 -99999 -99999 -99999 -99999 -99999 -99999 -99999 -99999 -99999 -99999 -99999 -99999 -99999 -99999 -99999 -99999 -99999 -99999 -99999 -99999 -99999 -99999 -99999 -99999 -99999 -99999 -99999 -99999 -99999 -99999
-99999 -99999 -99999 -99999 -99999 -99999 -99999 -99999 -99999 -99999 -99999 -99999 -99999 -99999 -99999 -99999 -99999 -99999 -99999 -99999 318 303 294 309 300 311 307 290 278 270 256 252 221 221 211 205 -99999 184 -99999 -99999 -99999 -99999 -99999 -99999 -99999 -99999 -99999 -99999 -99999 -99999 -99999 144 158 199 173 161 161 225 311 362 352 388 439 323 230 278 262 199 236 254 239 180 159 174 237 274 198 200 232 194 174 178 224 301 300 305 325 298 323 352 360 304 281 251 266 261 260 339 392 381 347 338 333 326 328 316 294 288 277 323 312 302 334 367 341 347 361 387 366 353 343 347 327 324 332 299 321 323 329 310 283 248 216 205 205 209 236 190 184 181 182 181 181 181 183 182 205 212 239 316 324 403 349 250 296 462 525 356 345 340 365 394 486 492 523 674 665 663 674 755 692 736 629 508 484 587 611 591 559 536 623 536 484 558 527 507 448 421 475 447 425 433 458 466 675 790 752 637 556 664 737 627 430 398 386 368 341 389 336 337 292 416 276 315 263 341 363 230 175 199 84 29 24 30 -99999 -99999 -99999 -99999 -99999 -99999 -99999 -99999 -99999 -99999 -99999 -99999 -99999 -99999 -99999 -99999 -99999 -99999 -99999 -99999 -99999 -99999 -99999 -99999 -99999 -99999 -99999 -99999 -99999 -99999 -99999 -99999 -99999 -99999 -99999 -99999 -99999 -99999 -99999 -99999 -99999 -99999 -99999 -99999 -99999 -99999 -99999
-99999 -99999 -99999 -99999 -99999 -99999 -99999 -99999 -99999 -99999 -99999 -99999 -99999 -99999 -99999 -99999 -99999 -99999 -99999 -99999 360 346 347 318 302 294 283 279 268 262 254 242 230 251 222 220 -99999 -99999 -99999 -99999 -99999 -99999 -99999 -99999 -99999 -99999 -99999 -99999 -99999 -99999 -99999 -99999 139 169 194 205 187 197 239 301 387 533 653 310 253 287 252 264 257 312 216 182 165 184 302 265 203 205 237 206 205 207 250 330 311 329 329 307 322 337 341 319 286 248 265 301 259 247 257 316 338 370 360 356 360 325 326 316 283 342 357 388 409 414 386 376 380 351 336 331 333 336 338 322 294 301 308 312 330 326 302 261 219 206 197 187 190 183 186 183 185 185 192 188 184 184 191 216 245 304 278 345 299 255 265 338 504 417 388 395 407 437 479 575 551 641 765 744 726 668 610 654 639 551 556 562 494 486 478 517 577 538 469 498 430 427 406 415 514 467 445 478 517 581 558 677 693 578 582 674 790 607 419 375 338 322 301 283 291 294 234 341 289 227 249 276 415 211 153 106 60 15 8 -99999 -99999 -99999 -99999 -99999 -99999 -99999 -99999 -99999 -99999 -99999 -99999 -99999 -99999 -99999 -99999 -99999 -99999 -99999 -99999 -99999 -99999 -99999 -99999 -99999 -99999 -99999 -99999 -99999 -99999 -99999 -99999 -99999 -99999 -99999 -99999 -99999 -99999 -99999 -99999 -99999 -99999 -99999 -99999 -99999 -99999 -99999 -99999
-99999 -99999 -99999 -99999 -99999 -99999 -99999 -99999 -99999 -99999 -99999 -99999 -99999 -99999 -99999 -99999 -99999 -99999 -99999 -99999 377 358 335 329 -99999 -99999 -99999 -99999 -99999 267 254 242 263 254 233 -99999 -99999 -99999 -99999 -99999 -99999 -99999 -99999 -99999 -99999 -99999 -99999 -99999 -99999 -99999 -99999 154 138 147 162 168 184 184 187 184 217 353 366 315 312 317 283 250 253 220 197 193 178 239 336 240 221 232 225 249 232 217 244 315 291 377 332 328 338 364 354 308 296 271 259 308 290 260 290 322 295 329 353 340 382 415 415 375 321 308 313 313 325 377 392 353 322 313 316 322 322 313 304 307 302 312 312 319 332 337 306 299 239 211 201 189 187 185 190 187 186 187 188 186 187 193 200 223 270 283 256 261 237 316 316 273 365 422 426 407 442 468 536 648 627 823 797 713 693 709 607 556 561 552 534 503 485 458 445 448 528 471 433 480 411 405 419 499 773 594 492 645 664 738 713 685 875 627 640 766 632 594 454 395 344 326 324 317 323 266 186 210 203 190 309 219 228 190 112 87 28 12 -99999 -99999 -99999 -99999 -99999 -99999 -99999 -99999 -99999 -99999 -99999 -99999 -99999 -99999 -99999 -99999 -99999 -99999 -99999 -99999 -99999 -99999 -99999 -99999 -99999 -99999 -99999 -99999 -99999 -99999 -99999 -99999 -99999 -99999 -99999 -99999 -99999 -99999 -99999 -99999 -99999 -99999 -99999 -99999 -99999 -99999 -99999 -99999 -99999
-99999 -99999 -99999 -99999 -99999 -99999 -99999 -99999 -99999 -99999 -99999 -99999 -99999 -99999 -99999 -99999 -99999 -99999 -99999 -99999 -99999 -99999 -99999 -99999 -99999 -99999 -99999 -99999 -99999 -99999 -99999 -99999 -99999 -99999 -99999 -99999 -99999 -99999 -99999 -99999 -99999 -99999 -99999 -99999 -99999 -99999 -99999 -99999 -99999 -99999 -99999 145 152 162 151 159 165 176 185 200 219 277 255 265 248 276 269 270 251 224 200 203 186 243 287 247 229 261 317 359 277 304 380 328 372 409 353 317 331 372 345 391 342 285 274 282 304 270 258 286 284 341 336 335 343 389 406 406 401 359 340 321 338 351 336 328 339 338 331 327 326 310 332 320 295 315 306 320 333 348 328 292 236 229 223 201 199 190 196 194 187 188 188 187 187 191 197 219 244 273 290 262 275 267 267 271 309 472 575 559 546 514 553 662 792 763 707 751 775 725 704 639 701 598 615 532 495 451 438 432 465 434 452 435 436 410 416 673 962 682 652 597 706 792 818 762 946 787 740 810 578 542 419 389 370 358 346 355 341 280 239 402 270 169 201 203 192 158 99 40 17 -99999 -99999 -99999 -99999 -99999 -99999 -99999 -99999 -99999 -99999 -99999 -99999 -99999 -99999 -99999 -99999 -99999 -99999 -99999 -99999 -99999 -99999 -99999 -99999 -99999 -99999 -99999 -99999 -99999 -99999 -99999 -99999 -99999 -99999 -99999 -99999 -99999 -99999 -99999 -99999 -99999 -99999 -99999 -99999 -99999 -99999 -99999 -99999 -99999 -99999
-99999 -99999 -99999 -99999 -99999 -99999 -99999 -99999 -99999 -99999 -99999 -99999 -99999 -99999 -99999 -99999 -99999 -99999 -99999 -99999 -99999 -99999 -99999 -99999 -99999 -99999 -99999 -99999 -99999 -99999 -99999 -99999 -99999 -99999 -99999 -99999 -99999 -99999 -99999 -99999 -99999 -99999 -99999 -99999 -99999 -99999 -99999 -99999 -99999 -99999 -99999 152 146 165 164 162 165 173 181 210 236 257 237 241 293 272 237 271 271 237 208 197 194 189 208 216 235 269 287 400 332 325 376 370 341 383 382 342 344 356 400 351 305 289 299 281 292 313 282 276 293 333 357 334 352 344 356 359 379 382 325 331 361 348 331 329 358 354 336 343 322 324 323 298 313 298 315 314 324 341 355 324 286 252 245 224 202 193 194 189 190 189 191 191 191 192 200 238 275 250 294 282 253 241 268 287 335 394 495 606 398 463 527 597 794 839 822 801 786 773 750 751 737 744 584 484 452 434 429 426 422 461 497 436 419 419 432 757 1037 857 642 774 737 807 800 764 1032 919 866 750 658 549 436 416 379 310 311 358 338 334 289 387 272 203 181 159 147 132 90 18 7 -99999 -99999 -99999 -99999 -99999 -99999 -99999 -99999 -99999 -99999 -99999 -99999 -99999 -99999 -99999 -99999 -99999 -99999 -99999 -99999 -99999 -99999 -99999 -99999 -99999 -99999 -99999 -99999 -99999 -99999 -99999 -99999 -99999 -99999 -99999 -99999 -99999 -99999 -99999 -99999 -99999 -99999 -99999 -99999 -99999 -99999 -99999 -99999 -99999 -99999
-99999 -99999 -99999 -99999 -99999 -99999 -99999 -99999 -99999 -99999 -99999 -99999 -99999 -99999 -99999 -99999 -99999 -99999 -99999 -99999 -99999 -99999 -99999 -99999 -99999 -99999 -99999 -99999 -99999 -99999 -99999 -99999 -99999 -99999 -99999 -99999 -99999 -99999 -99999 -99999 -99999 -99999 -99999 -99999 -99999 -99999 -99999 -99999 -99999 -99999 -99999 -99999 141 157 169 171 176 186 193 204 215 280 249 265 252 249 214 208 231 288 243 210 220 209 209 223 204 235 284 348 403 373 412 341 370 350 385 369 344 362 329 311 305 279 286 270 287 304 300 270 289 314 323 341 371 358 345 367 385 366 342 352 377 352 334 328 361 352 346 322 324 326 306 310 313 307 299 302 312 327 337 342 319 305 276 241 219 196 198 197 192 191 191 193 194 193 208 244 305 298 305 283 252 256 258 285 311 352 435 385 403 424 526 605 676 755 818 819 801 793 770 718 693 631 515 460 443 434 431 425 426 519 465 427 419 430 549 896 1084 1030 707 745 780 763 734 804 1048 962 795 619 590 517 442 416 372 332 270 282 362 363 306 328 291 250 212 156 139 104 50 11 -99999 -99999 -99999 -99999 -99999 -99999 -99999 -99999 -99999 -99999 -99999 -99999 -99999 -99999 -99999 -99999 -99999 -99999 -99999 -99999 -99999 -99999 -99999 -99999 -99999 -99999 -99999 -99999 -99999 -99999 -99999 -99999 -99999 -99999 -99999 -99999 -99999 -99999 -99999 -99999 -99999 -99999 -99999 -99999 -99999 -99999 -99999 -99999 -99999 -99999 -99999
-99999 -99999 -99999 -99999 -99999 -99999 -99999 -99999 -99999 -99999 -99999 -99999 -99999 -99999 -99999 -99999 -99999 -99999 -99999 -99999 -99999 -99999 -99999 -99999 -99999 -99999 -99999 -99999 -99999 -99999 -99999 -99999 -99999 -99999 -99999 -99999 -99999 -99999 -99999 -99999 -99999 -99999 -99999 -99999 -99999 -99999 -99999 -99999 -99999 -99999 -99999 -99999 143 138 157 168 173 200 229 190 206 281 315 228 203 203 189 181 220 293 307 264 249 234 227 227 217 202 213 232 325 358 404 387 399 357 359 365 369 366 391 332 300 283 296 272 284 309 320 285 289 297 312 353 384 363 362 381 359 336 369 374 355 343 339 352 370 354 326 335 342 327 301 319 316 312 306 308 307 311 319 346 347 338 308 265 231 203 194 195 195 195 193 193 194 192 205 241 283 302 267 254 250 271 297 285 301 340 379 344 365 379 459 607 646 685 844 813 797 779 758 707 574 685 616 462 441 435 431 433 441 490 485 426 428 441 505 705 834 983 914 767 747 764 782 877 945 916 824 727 586 533 473 393 336 305 266 242 262 282 286 289 263 207 205 170 122 76 32 13 -99999 -99999 -99999 -99999 -99999 -99999 -99999 -99999 -99999 -99999 -99999 -99999 -99999 -99999 -99999 -99999 -99999 -99999 -99999 -99999 -99999 -99999 -99999 -99999 -99999 -99999 -99999 -99999 -99999 -99999 -99999 -99999 -99999 -99999 -99999 -99999 -99999 -99999 -99999 -99999 -99999 -99999 -99999 -99999 -99999 -99999 -99999 -99999 -99999 -99999 -99999
-99999 -99999 -99999 -99999 -99999 -99999 -99999 -99999 -99999 -99999 -99999 -99999 -99999 -99999 -99999 -99999 -99999 -99999 -99999 -99999 -99999 -99999 -99999 -99999 -99999 -99999 -99999 -99999 -99999 -99999 -99999 -99999 -99999 -99999 -99999 -99999 -99999 -99999 -99999 -99999 -99999 -99999 -99999 -99999 -99999 -99999 -99999 -99999 -99999 -99999 -99999 -99999 -99999 138 155 165 171 180 174 185 193 206 204 190 180 187 174 191 285 236 352 387 349 276 276 244 224 258 255 288 325 364 397 401 406 392 383 408 428 404 363 332 307 295 301 290 284 312 333 321 302 296 317 322 371 376 375 370 348 350 353 368 350 352 342 369 359 337 335 347 337 321 297 308 317 316 304 313 320 320 317 322 357 363 334 341 244 211 198 197 197 197 197 197 195 194 229 257 276 278 260 265 245 277 322 347 344 335 316 325 350 362 423 468 549 600 810 809 783 765 749 702 675 581 546 456 453 450 451 477 478 489 553 513 447 448 498 863 884 1033 1099 916 867 822 834 997 965 791 723 670 566 480 388 363 290 321 265 226 220 243 246 315 313 227 169 136 102 78 28 -99999 -99999 -99999 -99999 -99999 -99999 -99999 -99999 -99999 -99999 -99999 -99999 -99999 -99999 -99999 -99999 -99999 -99999 -99999 -99999 -99999 -99999 -99999 -99999 -99999 -99999 -99999 -99999 -99999 -99999 -99999 -99999 -99999 -99999 -99999 -99999 -99999 -99999 -99999 -99999 -99999 -99999 -99999 -99999 -99999 -99999 -99999 -99999 -99999 -99999 -99999 -99999
-99999 -99999 -99999 -99999 -99999 -99999 -99999 -99999 -99999 -99999 -99999 -99999 -99999 -99999 -99999 -99999 -99999 -99999 -99999 -99999 -99999 -99999 -99999 -99999 -99999 -99999 -99999 -99999 -99999 -99999 -99999 -99999 -99999 -99999 -99999 -99999 -99999 -99999 -99999 -99999 -99999 -99999 -99999 -99999 -99999 -99999 -99999 -99999 -99999 -99999 -99999 -99999 -99999 -99999 140 144 160 162 174 175 177 193 174 174 166 167 179 207 205 282 456 434 404 397 334 272 249 259 313 337 315 372 391 445 410 446 444 400 399 346 324 298 295 321 317 286 286 296 318 357 334 289 309 311 324 367 382 366 352 369 343 371 364 351 361 347 342 349 347 323 315 306 298 301 308 321 314 314 322 322 315 318 337 363 300 296 252 210 201 200 200 199 198 199 200 202 236 283 292 266 281 273 252 277 336 356 463 431 376 346 349 389 407 406 479 694 858 829 785 756 741 737 713 627 512 628 695 628 657 742 594 548 464 519 451 621 531 684 824 957 1223 1035 999 839 829 970 829 605 696 606 510 416 346 299 268 335 264 253 227 208 229 247 233 202 152 122 103 46 18 -99999 -99999 -99999 -99999 -99999 -99999 -99999 -99999 -99999 -99999 -99999 -99999 -99999 -99999 -99999 -99999 -99999 -99999 -99999 -99999 -99999 -99999 -99999 -99999 -99999 -99999 -99999 -99999 -99999 -99999 -99999 -99999 -99999 -99999 -99999 -99999 -99999 -99999 -99999 -99999 -99999 -99999 -99999 -99999 -99999 -99999 -99999 -99999 -99999 -99999 -99999 -99999
-99999 -99999 -99999 -99999 -99999 -99999 -99999 -99999 -99999 -99999 -99999 -99999 -99999 -99999 -99999 -99999 -99999 -99999 -99999 -99999 -99999 -99999 -99999 -99999 -99999 -99999 -99999 -99999 -99999 -99999 -99999 -99999 -99999 -99999 -99999 -99999 -99999 -99999 -99999 -99999 -99999 -99999 -99999 -99999 -99999 -99999 -99999 -99999 -99999 -99999 -99999 -99999 -99999 -99999 -99999 161 154 166 180 185 193 196 172 168 157 162 171 177 182 205 318 318 322 395 360 295 276 260 275 312 325 352 413 463 436 456 398 346 335 330 313 317 313 309 332 295 281 296 304 344 361 303 300 320 336 374 380 372 353 372 347 378 370 358 363 356 358 338 321 325 317 325 312 304 296 313 320 324 333 333 321 331 324 348 334 260 245 210 202 203 203 202 200 201 217 240 220 269 271 286 279 267 268 273 289 358 487 404 379 401 384 390 378 380 414 654 865 812 776 752 726 698 672 611 649 727 727 734 775 818 829 634 476 536 434 635 682 464 617 750 1120 1088 1053 923 726 926 678 578 691 555 469 373 307 276 248 275 244 217 238 180 215 204 166 156 109 84 65 22 -99999 -99999 -99999 -99999 -99999 -99999 -99999 -99999 -99999 -99999 -99999 -99999 -99999 -99999 -99999 -99999 -99999 -99999 -99999 -99999 -99999 -99999 -99999 -99999 -99999 -99999 -99999 -99999 -99999 -99999 -99999 -99999 -99999 -99999 -99999 -99999 -99999 -99999 -99999 -99999 -99999 -99999 -99999 -99999 -99999 -99999 -99999 -99999 -99999 -99999 -99999 -99999 -99999
-99999 -99999 -99999 -99999 -99999 -99999 -99999 -99999 -99999 -99999 -99999 -99999 -99999 -99999 -99999 -99999 -99999 -99999 -99999 -99999 -99999 -99999 -99999 -99999 -99999 -99999 -99999 -99999 -99999 -99999 -99999 -99999 -99999 -99999 -99999 -99999 -99999 -99999 -99999 -99999 -99999 -99999 -99999 -99999 -99999 -99999 -99999 -99999 -99999 -99999 -99999 -99999 -99999 -99999 -99999 -99999 165 192 182 170 155 153 148 145 144 152 163 182 192 221 233 208 221 392 416 355 374 265 287 309 365 383 453 508 493 470 391 338 321 366 337 342 306 305 358 324 307 321 297 307 350 316 297 319 313 323 370 355 375 360 369 388 389 368 379 358 333 343 345 333 335 323 322 308 299 305 320 330 333 334 336 331 332 356 354 278 220 211 205 205 205 204 205 208 246 260 225 248 247 281 277 273 306 311 284 337 349 333 322 334 341 354 357 383 434 588 834 823 776 753 730 717 708 648 635 702 737 759 765 811 694 504 460 526 449 644 782 489 478 622 1029 1114 1091 908 744 715 551 545 646 558 489 384 282 251 244 218 216 192 188 154 209 160 110 109 86 76 38 -99999 -99999 -99999 -99999 -99999 -99999 -99999 -99999 -99999 -99999 -99999 -99999 -99999 -99999 -99999 -99999 -99999 -99999 -99999 -99999 -99999 -99999 -99999 -99999 -99999 -99999 -99999 -99999 -99999 -99999 -99999 -99999 -99999 -99999 -99999 -99999 -99999 -99999 -99999 -99999 -99999 -99999 -99999 -99999 -99999 -99999 -99999 -99999 -99999 -99999 -99999 -99999 -99999 -99999
-99999 -99999 -99999 -99999 -99999 -99999 -99999 -99999 -99999 -99999 -99999 -99999 -99999 -99999 -99999 -99999 -99999 -99999 -99999 -99999 -99999 -99999 -99999 -99999 -99999 -99999 -99999 -99999 -99999 -99999 -99999 -99999 -99999 -99999 -99999 -99999 -99999 -99999 -99999 -99999 -99999 -99999 -99999 -99999 -99999 -99999 -99999 -99999 -99999 -99999 -99999 -99999 -99999 -99999 -99999 -99999 -99999 -99999 147 140 149 -99999 146 144 143 144 156 181 191 206 196 192 209 268 320 349 338 288 310 367 447 500 524 590 531 397 346 346 358 420 335 366 313 296 373 395 351 328 313 308 348 337 296 328 346 345 378 361 385 362 380 399 396 393 364 345 340 357 334 344 345 329 330 318 318 311 316 324 332 342 346 340 340 352 312 265 218 211 208 208 210 210 210 228 263 295 242 233 239 276 292 294 355 344 296 311 299 305 339 355 358 410 456 378 407 490 772 850 803 756 747 728 719 701 715 749 770 792 811 766 502 464 448 445 451 503 733 565 486 549 985 1137 1090 966 1003 794 402 516 617 502 399 410 267 224 253 226 212 169 175 184 154 77 61 66 41 37 18 -99999 -99999 -99999 -99999 -99999 -99999 -99999 -99999 -99999 -99999 -99999 -99999 -99999 -99999 -99999 -99999 -99999 -99999 -99999 -99999 -99999 -99999 -99999 -99999 -99999 -99999 -99999 -99999 -99999 -99999 -99999 -99999 -99999 -99999 -99999 -99999 -99999 -99999 -99999 -99999 -99999 -99999 -99999 -99999 -99999 -99999 -99999 -99999 -99999 -99999 -99999 -99999 -99999 -99999
-99999 -99999 -99999 -99999 -99999 -99999 -99999 -99999 -99999 -99999 -99999 -99999 -99999 -99999 -99999 -99999 -99999 -99999 -99999 -99999 -99999 -99999 -99999 -99999 -99999 -99999 -99999 -99999 -99999 -99999 -99999 -99999 -99999 -99999 -99999 -99999 -99999 -99999 -99999 -99999 -99999 -99999 -99999 -99999 -99999 -99999 -99999 -99999 -99999 -99999 -99999 -99999 -99999 -99999 -99999 -99999 -99999 -99999 -99999 -99999 -99999 -99999 -99999 163 157 152 146 152 174 207 185 179 184 195 204 231 311 308 311 320 361 508 562 578 438 384 425 391 427 386 348 416 348 311 370 438 387 357 318 313 352 368 315 308 345 385 382 372 396 372 393 411 413 405 366 351 354 350 356 351 347 350 338 323 322 332 313 333 331 347 355 353 361 326 285 237 220 212 211 212 212 211 218 271 273 296 270 243 260 285 308 316 427 470 322 441 371 308 336 380 419 421 635 482 427 517 841 859 801 776 757 744 733 709 742 760 770 793 815 687 530 478 453 438 430 525 657 696 512 519 868 1101 1170 1047 1100 982 367 467 561 523 364 336 287 256 288 338 306 234 206 198 98 67 28 47 29 13 -99999 -99999 -99999 -99999 -99999 -99999 -99999 -99999 -99999 -99999 -99999 -99999 -99999 -99999 -99999 -99999 -99999 -99999 -99999 -99999 -99999 -99999 -99999 -99999 -99999 -99999 -99999 -99999 -99999 -99999 -99999 -99999 -99999 -99999 -99999 -99999 -99999 -99999 -99999 -99999 -99999 -99999 -99999 -99999 -99999 -99999 -99999 -99999 -99999 -99999 -99999 -99999 -99999 -99999 -99999
-99999 -99999 -99999 -99999 -99999 -99999 -99999 -99999 -99999 -99999 -99999 -99999 -99999 -99999 -99999 -99999 -99999 -99999 -99999 -99999 -99999 -99999 -99999 -99999 -99999 -99999 -99999 -99999 -99999 -99999 -99999 -99999 -99999 -99999 -99999 -99999 -99999 -99999 -99999 -99999 -99999 -99999 -99999 -99999 -99999 -99999 -99999 -99999 -99999 -99999 -99999 -99999 -99999 -99999 -99999 -99999 -99999 -99999 -99999 -99999 -99999 -99999 -99999 -99999 -99999 150 157 150 148 160 170 163 164 182 190 195 228 266 324 352 493 379 439 562 546 522 486 466 423 412 371 416 448 363 347 445 413 384 349 321 323 359 343 299 339 383 402 400 396 386 398 424 428 409 386 349 372 359 350 368 346 365 354 334 332 338 335 340 355 355 373 356 374 329 280 230 220 215 214 214 215 213 239 265 312 289 280 253 268 307 322 340 519 556 339 502 501 320 338 371 416 589 709 678 560 620 834 862 830 795 768 752 749 751 743 725 731 779 785 659 563 475 451 432 438 516 709 884 567 528 717 1044 1264 1162 1159 1098 618 415 416 452 363 369 435 489 525 455 366 316 187 146 63 32 27 49 17 -99999 -99999 -99999 -99999 -99999 -99999 -99999 -99999 -99999 -99999 -99999 -99999 -99999 -99999 -99999 -99999 -99999 -99999 -99999 -99999 -99999 -99999 -99999 -99999 -99999 -99999 -99999 -99999 -99999 -99999 -99999 -99999 -99999 -99999 -99999 -99999 -99999 -99999 -99999 -99999 -99999 -99999 -99999 -99999 -99999 -99999 -99999 -99999 -99999 -99999 -99999 -99999 -99999 -99999 -99999 -99999
-99999 -99999 -99999 -99999 -99999 -99999 -99999 -99999 -99999 -99999 -99999 -99999 -99999 -99999 -99999 -99999 -99999 -99999 -99999 -99999 -99999 -99999 -99999 -99999 -99999 -99999 -99999 -99999 -99999 -99999 -99999 -99999 -99999 -99999 -99999 -99999 -99999 -99999 -99999 -99999 -99999 -99999 -99999 -99999 -99999 -99999 -99999 -99999 -99999 -99999 -99999 -99999 -99999 -99999 -99999 -99999 -99999 -99999 -99999 -99999 -99999 -99999 -99999 -99999 -99999 -99999 -99999 166 158 160 159 155 157 164 168 177 191 218 264 382 431 324 299 520 559 548 509 458 424 452 415 464 450 437 410 444 433 428 363 334 329 364 334 310 334 342 376 409 402 393 405 431 435 413 389 365 395 364 364 370 368 382 361 333 367 350 340 338 358 364 381 351 383 355 273 234 222 219 218 216 215 222 265 302 311 307 271 292 304 336 323 372 499 521 374 395 766 378 350 450 523 482 594 625 661 724 924 888 840 807 783 764 740 734 701 673 681 753 725 581 497 464 445 431 450 481 710 874 604 549 620 984 1329 1190 1141 1113 1007 446 408 343 326 520 758 665 732 662 395 251 188 115 17 17 15 21 -99999 -99999 -99999 -99999 -99999 -99999 -99999 -99999 -99999 -99999 -99999 -99999 -99999 -99999 -99999 -99999 -99999 -99999 -99999 -99999 -99999 -99999 -99999 -99999 -99999 -99999 -99999 -99999 -99999 -99999 -99999 -99999 -99999 -99999 -99999 -99999 -99999 -99999 -99999 -99999 -99999 -99999 -99999 -99999 -99999 -99999 -99999 -99999 -99999 -99999 -99999 -99999 -99999 -99999 -99999 -99999 -99999
-99999 -99999 -99999 -99999 -99999 -99999 -99999 -99999 -99999 -99999 -99999 -99999 -99999 -99999 -99999 -99999 -99999 -99999 -99999 -99999 -99999 -99999 -99999 -99999 -99999 -99999 -99999 -99999 -99999 -99999 -99999 -99999 -99999 -99999 -99999 -99999 -99999 -99999 -99999 -99999 -99999 -99999 -99999 -99999 -99999 -99999 -99999 -99999 -99999 -99999 -99999 -99999 -99999 -99999 -99999 -99999 -99999 -99999 -99999 -99999 -99999 -99999 -99999 -99999 -99999 -99999 -99999 -99999 -99999 -99999 -99999 162 157 159 167 179 183 197 220 243 353 288 287 399 533 581 509 431 467 450 467 518 463 487 451 465 453 456 368 363 350 349 343 331 330 381 374 417 410 423 381 441 445 438 411 412 410 397 388 376 404 402 371 360 398 372 349 370 336 364 375 366 374 356 280 238 223 222 219 218 221 243 303 312 278 276 282 324 363 339 316 369 582 499 374 443 786 610 431 405 611 531 538 546 546 683 961 900 852 816 782 759 741 725 725 688 604 671 649 556 470 455 443 437 446 510 696 820 759 602 724 1056 1316 1044 941 1105 1038 540 574 431 480 748 751 663 621 572 410 251 173 105 13 -99999 -99999 -99999 -99999 -99999 -99999 -99999 -99999 -99999 -99999 -99999 -99999 -99999 -99999 -99999 -99999 -99999 -99999 -99999 -99999 -99999 -99999 -99999 -99999 -99999 -99999 -99999 -99999 -99999 -99999 -99999 -99999 -99999 -99999 -99999 -99999 -99999 -99999 -99999 -99999 -99999 -99999 -99999 -99999 -99999 -99999 -99999 -99999 -99999 -99999 -99999 -99999 -99999 -99999 -99999 -99999 -99999 -99999 -99999 -99999
-99999 -99999 -99999 -99999 -99999 -99999 -99999 -99999 -99999 -99999 -99999 -99999 -99999 -99999 -99999 -99999 -99999 -99999 -99999 -99999 -99999 -99999 -99999 -99999 -99999 -99999 -99999 -99999 -99999 -99999 -99999 -99999 -99999 -99999 -99999 -99999 -99999 -99999 -99999 -99999 -99999 -99999 -99999 -99999 -99999 -99999 -99999 -99999 -99999 -99999 -99999 -99999 -99999 -99999 -99999 -99999 -99999 -99999 -99999 -99999 -99999 -99999 -99999 -99999 -99999 -99999 -99999 -99999 -99999 -99999 -99999 181 168 160 169 173 170 178 196 208 271 236 304 417 566 621 565 484 542 505 539 532 514 491 487 488 501 479 432 419 354 369 380 353 325 371 400 427 426 430 411 386 448 457 441 454 414 445 438 435 442 405 391 375 417 355 371 377 348 349 387 407 409 331 251 231 226 223 222 223 230 274 295 266 259 268 317 410 401 354 331 377 642 506 454 426 736 976 998 659 506 450 657 463 496 626 813 906 849 808 787 774 754 726 695 668 583 540 504 535 521 510 450 436 458 557 819 809 822 689 698 1019 1334 1046 823 1179 984 614 546 422 636 897 776 682 664 657 555 235 176 58 15 -99999 -99999 -99999 -99999 -99999 -99999 -99999 -99999 -99999 -99999 -99999 -99999 -99999 -99999 -99999 -99999 -99999 -99999 -99999 -99999 -99999 -99999 -99999 -99999 -99999 -99999 -99999 -99999 -99999 -99999 -99999 -99999 -99999 -99999 -99999 -99999 -99999 -99999 -99999 -99999 -99999 -99999 -99999 -99999 -99999 -99999 -99999 -99999 -99999 -99999 -99999 -99999 -99999 -99999 -99999 -99999 -99999 -99999 -99999 -99999
-99999 -99999 -99999 -99999 -99999 -99999 -99999 -99999 -99999 -99999 -99999 -99999 -99999 -99999 -99999 -99999 -99999 -99999 -99999 -99999 -99999 -99999 -99999 -99999 -99999 -99999 -99999 -99999 -99999 -99999 -99999 -99999 -99999 -99999 -99999 -99999 -99999 -99999 -99999 -99999 -99999 -99999 -99999 -99999 -99999 -99999 -99999 -99999 -99999 -99999 -99999 -99999 -99999 -99999 -99999 -99999 -99999 -99999 -99999 -99999 -99999 -99999 -99999 -99999 -99999 -99999 -99999 -99999 -99999 -99999 -99999 -99999 195 170 180 180 213 187 212 190 204 221 259 432 520 636 607 507 570 548 563 551 550 500 533 529 541 496 489 457 399 404 409 357 344 344 372 428 441 450 445 430 414 456 484 475 443 485 489 472 461 385 430 389 374 350 388 372 392 350 377 400 434 284 238 229 229 226 227 234 251 246 241 255 271 282 366 403 403 356 368 445 627 526 517 449 633 916 1101 844 547 577 577 446 499 634 849 923 850 808 783 766 731 699 666 663 658 603 589 725 725 546 443 444 465 551 756 884 868 880 774 874 939 813 737 1163 907 593 468 390 596 779 706 615 725 550 308 200 194 51 12 -99999 -99999 -99999 -99999 -99999 -99999 -99999 -99999 -99999 -99999 -99999 -99999 -99999 -99999 -99999 -99999 -99999 -99999 -99999 -99999 -99999 -99999 -99999 -99999 -99999 -99999 -99999 -99999 -99999 -99999 -99999 -99999 -99999 -99999 -99999 -99999 -99999 -99999 -99999 -99999 -99999 -99999 -99999 -99999 -99999 -99999 -99999 -99999 -99999 -99999 -99999 -99999 -99999 -99999 -99999 -99999 -99999 -99999 -99999 -99999
-99999 -99999 -99999 -99999 -99999 -99999 -99999 -99999 -99999 -99999 -99999 -99999 -99999 -99999 -99999 -99999 -99999 -99999 -99999 -99999 -99999 -99999 -99999 -99999 -99999 -99999 -99999 -99999 -99999 -99999 -99999 -99999 -99999 -99999 -99999 -99999 -99999 -99999 -99999 -99999 -99999 -99999 -99999 -99999 -99999 -99999 -99999 -99999 -99999 -99999 -99999 -99999 -99999 -99999 -99999 -99999 -99999 -99999 -99999 -99999 -99999 -99999 -99999 -99999 -99999 -99999 -99999 -99999 -99999 -99999 -99999 -99999 -99999 -99999 -99999 -99999 -99999 -99999 -99999 414 194 210 235 338 485 599 610 536 606 575 582 568 555 546 567 565 559 501 534 513 487 489 429 384 392 359 392 429 460 470 467 472 456 403 485 509 479 514 502 496 406 382 454 392 370 363 407 403 390 362 369 360 289 257 236 233 230 230 232 247 287 254 251 270 265 294 314 364 390 389 454 671 669 573 681 508 605 650 724 916 809 759 657 454 513 637 895 925 874 827 783 738 718 730 709 671 663 663 716 748 636 466 440 453 465 497 646 832 896 958 851 604 564 612 661 930 849 386 388 305 489 661 586 443 620 347 266 235 201 29 8 -99999 -99999 -99999 -99999 -99999 -99999 -99999 -99999 -99999 -99999 -99999 -99999 -99999 -99999 -99999 -99999 -99999 -99999 -99999 -99999 -99999 -99999 -99999 -99999 -99999 -99999 -99999 -99999 -99999 -99999 -99999 -99999 -99999 -99999 -99999 -99999 -99999 -99999 -99999 -99999 -99999 -99999 -99999 -99999 -99999 -99999 -99999 -99999 -99999 -99999 -99999 -99999 -99999 -99999 -99999 -99999 -99999 -99999 -99999 -99999
-99999 -99999 -99999 -99999 -99999 -99999 -99999 -99999 -99999 -99999 -99999 -99999 -99999 -99999 -99999 -99999 -99999 -99999 -99999 -99999 -99999 -99999 -99999 -99999 -99999 -99999 -99999 -99999 -99999 -99999 -99999 -99999 -99999 -99999 -99999 -99999 -99999 -99999 -99999 -99999 -99999 -99999 -99999 -99999 -99999 -99999 -99999 -99999 -99999 -99999 -99999 -99999 -99999 -99999 -99999 -99999 -99999 -99999 -99999 -99999 -99999 -99999 -99999 -99999 -99999 -99999 -99999 -99999 -99999 -99999 -99999 -99999 -99999 -99999 -99999 -99999 -99999 -99999 -99999 -99999 -99999 201 221 253 345 505 574 589 632 598 603 593 581 580 590 578 591 544 554 561 552 512 462 421 439 363 385 464 463 496 499 508 487 429 418 523 486 512 495 491 423 439 437 382 378 371 411 426 387 349 387 390 285 244 237 236 243 233 233 259 277 269 274 287 282 309 350 406 432 448 638 735 631 538 534 592 459 505 882 1269 1011 1008 545 463 505 681 906 911 873 851 798 774 738 713 672 696 713 715 707 605 465 453 441 452 463 480 510 697 939 942 841 567 563 489 601 659 665 400 314 318 299 464 436 356 458 337 313 309 230 30 7 -99999 -99999 -99999 -99999 -99999 -99999 -99999 -99999 -99999 -99999 -99999 -99999 -99999 -99999 -99999 -99999 -99999 -99999 -99999 -99999 -99999 -99999 -99999 -99999 -99999 -99999 -99999 -99999 -99999 -99999 -99999 -99999 -99999 -99999 -99999 -99999 -99999 -99999 -99999 -99999 -99999 -99999 -99999 -99999 -99999 -99999 -99999 -99999 -99999 -99999 -99999 -99999 -99999 -99999 -99999 -99999 -99999 -99999 -99999 -99999
-99999 -99999 -99999 -99999 -99999 -99999 -99999 -99999 -99999 -99999 -99999 -99999 -99999 -99999 -99999 -99999 -99999 -99999 -99999 -99999 -99999 -99999 -99999 -99999 -99999 -99999 -99999 -99999 -99999 -99999 -99999 -99999 -99999 -99999 -99999 -99999 -99999 -99999 -99999 -99999 -99999 -99999 -99999 -99999 -99999 -99999 -99999 -99999 -99999 -99999 -99999 -99999 -99999 -99999 -99999 -99999 -99999 -99999 -99999 -99999 -99999 -99999 -99999 -99999 -99999 -99999 -99999 -99999 -99999 -99999 -99999 -99999 -99999 -99999 -99999 -99999 -99999 -99999 -99999 -99999 -99999 292 201 223 255 294 460 615 656 610 642 615 605 612 625 592 587 584 603 597 569 531 470 413 471 425 357 389 433 442 465 527 521 449 415 448 502 524 519 516 515 499 448 394 400 366 448 431 371 359 379 332 257 242 242 241 239 238 238 268 261 275 303 297 313 303 332 367 426 537 550 503 511 533 472 576 524 918 1304 1111 697 517 445 498 567 763 912 952 908 852 801 774 749 706 678 618 650 648 545 484 467 456 444 459 470 485 519 601 932 854 646 533 547 540 485 410 390 338 374 385 492 695 483 501 251 212 243 224 189 57 14 -99999 -99999 -99999 -99999 -99999 -99999 -99999 -99999 -99999 -99999 -99999 -99999 -99999 -99999 -99999 -99999 -99999 -99999 -99999 -99999 -99999 -99999 -99999 -99999 -99999 -99999 -99999 -99999 -99999 -99999 -99999 -99999 -99999 -99999 -99999 -99999 -99999 -99999 -99999 -99999 -99999 -99999 -99999 -99999 -99999 -99999 -99999 -99999 -99999 -99999 -99999 -99999 -99999 -99999 -99999 -99999 -99999 -99999 -99999 -99999
-99999 -99999 -99999 -99999 -99999 -99999 -99999 -99999 -99999 -99999 -99999 -99999 -99999 -99999 -99999 -99999 -99999 -99999 -99999 -99999 -99999 -99999 -99999 -99999 -99999 -99999 -99999 -99999 -99999 -99999 -99999 -99999 -99999 -99999 -99999 -99999 -99999 -99999 -99999 -99999 -99999 -99999 -99999 -99999 -99999 -99999 -99999 -99999 -99999 -99999 -99999 -99999 -99999 -99999 -99999 -99999 -99999 -99999 -99999 -99999 -99999 -99999 -99999 -99999 -99999 -99999 -99999 -99999 -99999 -99999 -99999 -99999 -99999 -99999 -99999 -99999 -99999 -99999 -99999 -99999 -99999 339 200 216 239 245 488 666 672 615 693 651 667 650 641 626 613 622 571 463 394 428 387 385 454 443 395 404 445 469 479 495 491 479 443 445 489 466 489 552 557 536 453 407 405 387 402 441 353 318 306 271 262 249 253 244 244 251 243 240 261 279 298 345 354 329 350 357 427 514 475 511 552 709 469 588 695 1008 1115 1127 641 483 450 494 566 754 784 830 892 851 825 800 766 745 646 605 568 551 489 470 460 449 460 483 487 596 540 571 872 749 626 673 607 559 480 534 435 379 442 520 662 633 618 664 248 200 165 138 145 77 21 -99999 -99999 -99999 -99999 -99999 -99999 -99999 -99999 -99999 -99999 -99999 -99999 -99999 -99999 -99999 -99999 -99999 -99999 -99999 -99999 -99999 -99999 -99999 -99999 -99999 -99999 -99999 -99999 -99999 -99999 -99999 -99999 -99999 -99999 -99999 -99999 -99999 -99999 -99999 -99999 -99999 -99999 -99999 -99999 -99999 -99999 -99999 -99999 -99999 -99999 -99999 -99999 -99999 -99999 -99999 -99999 -99999 -99999 -99999 -99999
-99999 -99999 -99999 -99999 -99999 -99999 -99999 -99999 -99999 -99999 -99999 -99999 -99999 -99999 -99999 -99999 -99999 -99999 -99999 -99999 -99999 -99999 -99999 -99999 -99999 -99999 -99999 -99999 -99999 -99999 -99999 -99999 -99999 -99999 -99999 -99999 -99999 -99999 -99999 -99999 -99999 -99999 -99999 -99999 -99999 -99999 -99999 -99999 -99999 -99999 -99999 -99999 -99999 -99999 -99999 -99999 -99999 -99999 -99999 -99999 -99999 -99999 -99999 -99999 -99999 -99999 -99999 -99999 -99999 -99999 -99999 -99999 -99999 -99999 -99999 -99999 -99999 -99999 -99999 -99999 -99999 415 346 203 220 240 365 672 669 633 684 700 674 693 631 626 584 399 309 302 334 368 345 361 379 356 446 447 441 424 328 391 411 432 429 427 437 443 454 492 560 546 464 457 458 429 440 450 393 322 304 275 274 254 260 249 248 262 247 245 266 295 299 371 363 350 368 461 592 497 506 598 663 715 514 556 765 881 1027 1038 557 470 461 475 546 631 710 788 882 874 838 812 742 715 709 628 600 574 565 489 460 485 584 509 505 753 778 601 899 770 657 580 559 560 577 645 563 421 565 589 737 649 740 627 281 221 229 182 143 116 -99999 -99999 -99999 -99999 -99999 -99999 -99999 -99999 -99999 -99999 -99999 -99999 -99999 -99999 -99999 -99999 -99999 -99999 -99999 -99999 -99999 -99999 -99999 -99999 -99999 -99999 -99999 -99999 -99999 -99999 -99999 -99999 -99999 -99999 -99999 -99999 -99999 -99999 -99999 -99999 -99999 -99999 -99999 -99999 -99999 -99999 -99999 -99999 -99999 -99999 -99999 -99999 -99999 -99999 -99999 -99999 -99999 -99999 -99999 -99999 -99999
-99999 -99999 -99999 -99999 -99999 -99999 -99999 -99999 -99999 -99999 -99999 -99999 -99999 -99999 -99999 -99999 -99999 -99999 -99999 -99999 -99999 -99999 -99999 -99999 -99999 -99999 -99999 -99999 -99999 -99999 -99999 -99999 -99999 -99999 -99999 -99999 -99999 -99999 -99999 -99999 -99999 -99999 -99999 -99999 -99999 -99999 -99999 -99999 -99999 -99999 -99999 -99999 -99999 -99999 -99999 -99999 -99999 -99999 -99999 -99999 -99999 -99999 -99999 -99999 -99999 -99999 -99999 -99999 -99999 -99999 -99999 -99999 -99999 -99999 -99999 -99999 -99999 -99999 -99999 -99999 -99999 564 389 210 297 411 253 525 704 660 702 736 651 632 574 475 329 273 310 370 419 367 239 223 272 406 412 278 294 327 420 438 516 454 471 476 466 513 559 577 576 519 482 508 514 476 451 438 389 328 288 301 267 258 256 254 252 252 247 263 283 297 312 417 420 401 445 661 631 495 526 586 652 709 644 688 964 991 996 920 480 451 466 482 556 795 740 792 914 870 821 766 779 787 679 672 685 652 606 496 454 502 556 484 492 523 680 677 849 728 665 673 678 688 713 653 522 505 698 754 822 855 867 555 297 289 299 223 118 76 -99999 -99999 -99999 -99999 -99999 -99999 -99999 -99999 -99999 -99999 -99999 -99999 -99999 -99999 -99999 -99999 -99999 -99999 -99999 -99999 -99999 -99999 -99999 -99999 -99999 -99999 -99999 -99999 -99999 -99999 -99999 -99999 -99999 -99999 -99999 -99999 -99999 -99999 -99999 -99999 -99999 -99999 -99999 -99999 -99999 -99999 -99999 -99999 -99999 -99999 -99999 -99999 -99999 -99999 -99999 -99999 -99999 -99999 -99999 -99999 -99999
-99999 -99999 -99999 -99999 -99999 -99999 -99999 -99999 -99999 -99999 -99999 -99999 -99999 -99999 -99999 -99999 -99999 -99999 -99999 -99999 -99999 -99999 -99999 -99999 -99999 -99999 -99999 -99999 -99999 -99999 -99999 -99999 -99999 -99999 -99999 -99999 -99999 -99999 -99999 -99999 -99999 -99999 -99999 -99999 -99999 -99999 -99999 -99999 -99999 -99999 -99999 -99999 -99999 -99999 -99999 -99999 -99999 -99999 -99999 -99999 -99999 -99999 -99999 -99999 -99999 -99999 -99999 -99999 -99999 -99999 -99999 -99999 -99999 -99999 -99999 -99999 -99999 -99999 -99999 -99999 -99999 -99999 445 209 221 481 391 312 606 680 635 642 572 585 540 456 290 211 319 287 226 203 202 253 351 301 230 233 272 314 338 358 374 395 443 520 612 706 707 649 550 568 572 563 487 393 373 346 362 343 289 277 264 260 261 258 263 253 252 268 301 312 345 449 427 467 671 630 583 515 578 581 594 800 849 944 1089 1101 1092 740 474 460 478 547 795 933 790 835 898 840 804 813 757 728 729 746 759 687 592 513 460 462 465 476 493 525 548 611 895 812 761 794 799 702 659 596 473 643 833 918 927 888 734 462 350 366 408 175 87 49 -99999 -99999 -99999 -99999 -99999 -99999 -99999 -99999 -99999 -99999 -99999 -99999 -99999 -99999 -99999 -99999 -99999 -99999 -99999 -99999 -99999 -99999 -99999 -99999 -99999 -99999 -99999 -99999 -99999 -99999 -99999 -99999 -99999 -99999 -99999 -99999 -99999 -99999 -99999 -99999 -99999 -99999 -99999 -99999 -99999 -99999 -99999 -99999 -99999 -99999 -99999 -99999 -99999 -99999 -99999 -99999 -99999 -99999 -99999 -99999 -99999
-99999 -99999 -99999 -99999 -99999 -99999 -99999 -99999 -99999 -99999 -99999 -99999 -99999 -99999 -99999 -99999 -99999 -99999 -99999 -99999 -99999 -99999 -99999 -99999 -99999 -99999 -99999 -99999 -99999 -99999 -99999 -99999 -99999 -99999 -99999 -99999 -99999 -99999 -99999 -99999 -99999 -99999 -99999 -99999 -99999 -99999 -99999 -99999 -99999 -99999 -99999 -99999 -99999 -99999 -99999 -99999 -99999 -99999 -99999 -99999 -99999 -99999 -99999 -99999 -99999 -99999 -99999 -99999 -99999 -99999 -99999 -99999 -99999 -99999 -99999 -99999 -99999 -99999 -99999 -99999 -99999 -99999 446 515 206 247 371 275 371 626 593 576 528 566 552 498 252 203 223 204 188 188 195 271 294 207 270 305 315 309 347 452 494 475 482 629 744 736 705 687 657 610 609 531 458 408 401 380 494 383 292 273 269 266 265 263 273 258 263 291 318 333 349 467 583 688 655 579 546 580 699 582 634 844 920 997 961 999 1062 734 506 484 668 655 792 927 839 831 863 833 773 739 801 783 745 776 775 742 717 544 465 475 468 519 509 754 815 653 922 873 819 741 699 692 610 563 557 641 873 870 884 617 611 529 393 293 189 147 141 79 -99999 -99999 -99999 -99999 -99999 -99999 -99999 -99999 -99999 -99999 -99999 -99999 -99999 -99999 -99999 -99999 -99999 -99999 -99999 -99999 -99999 -99999 -99999 -99999 -99999 -99999 -99999 -99999 -99999 -99999 -99999 -99999 -99999 -99999 -99999 -99999 -99999 -99999 -99999 -99999 -99999 -99999 -99999 -99999 -99999 -99999 -99999 -99999 -99999 -99999 -99999 -99999 -99999 -99999 -99999 -99999 -99999 -99999 -99999 -99999 -99999
-99999 -99999 -99999 -99999 -99999 -99999 -99999 -99999 -99999 -99999 -99999 -99999 -99999 -99999 -99999 -99999 -99999 -99999 -99999 -99999 -99999 -99999 -99999 -99999 -99999 -99999 -99999 -99999 -99999 -99999 -99999 -99999 -99999 -99999 -99999 -99999 -99999 -99999 -99999 -99999 -99999 -99999 -99999 -99999 -99999 -99999 -99999 -99999 -99999 -99999 -99999 -99999 -99999 -99999 -99999 -99999 -99999 -99999 -99999 -99999 -99999 -99999 -99999 -99999 -99999 -99999 -99999 -99999 -99999 -99999 -99999 -99999 -99999 -99999 -99999 -99999 -99999 -99999 -99999 -99999 208 227 248 337 207 216 261 275 294 400 520 488 505 468 525 429 221 204 217 198 174 173 212 275 224 215 360 498 373 347 337 390 521 725 780 760 717 666 649 631 604 578 569 563 505 430 416 420 587 399 366 283 277 272 270 268 264 260 283 284 308 343 390 524 684 656 593 550 623 741 671 642 669 678 671 755 789 857 1006 614 614 521 868 947 839 879 860 795 786 765 774 791 793 741 735 758 799 770 720 481 470 477 474 515 488 782 700 941 969 978 953 839 882 925 865 728 825 833 811 696 627 419 386 410 266 223 202 250 226 77 4 -99999 -99999 -99999 -99999 -99999 -99999 -99999 -99999 -99999 -99999 -99999 -99999 -99999 -99999 -99999 -99999 -99999 -99999 -99999 -99999 -99999 -99999 -99999 -99999 -99999 -99999 -99999 -99999 -99999 -99999 -99999 -99999 -99999 -99999 -99999 -99999 -99999 -99999 -99999 -99999 -99999 -99999 -99999 -99999 -99999 -99999 -99999 -99999 -99999 -99999 -99999 -99999 -99999 -99999 -99999 -99999 -99999 -99999 -99999 -99999
-99999 -99999 -99999 -99999 -99999 -99999 -99999 -99999 -99999 -99999 -99999 -99999 -99999 -99999 -99999 -99999 -99999 -99999 -99999 -99999 -99999 -99999 -99999 -99999 -99999 -99999 -99999 -99999 -99999 -99999 -99999 -99999 -99999 -99999 -99999 -99999 -99999 -99999 -99999 -99999 -99999 -99999 -99999 -99999 -99999 -99999 -99999 -99999 -99999 -99999 -99999 -99999 -99999 -99999 -99999 -99999 -99999 -99999 -99999 -99999 -99999 -99999 -99999 -99999 -99999 -99999 -99999 -99999 -99999 -99999 -99999 -99999 -99999 -99999 -99999 -99999 -99999 -99999 -99999 -99999 213 207 240 223 204 216 229 268 292 317 445 384 403 367 370 267 201 186 202 192 165 207 362 454 251 217 216 295 434 465 383 460 568 692 697 670 658 668 606 578 553 543 541 471 427 396 394 556 715 679 536 299 286 276 279 277 273 266 327 313 324 353 459 659 737 705 630 632 780 749 610 689 629 706 714 744 838 910 1112 640 704 660 896 964 909 766 793 854 766 767 832 791 722 651 664 674 718 694 587 465 494 485 483 489 484 609 649 1042 909 963 999 919 914 933 866 832 822 841 730 603 418 351 302 315 245 247 505 286 152 55 5 -99999 -99999 -99999 -99999 -99999 -99999 -99999 -99999 -99999 -99999 -99999 -99999 -99999 -99999 -99999 -99999 -99999 -99999 -99999 -99999 -99999 -99999 -99999 -99999 -99999 -99999 -99999 -99999 -99999 -99999 -99999 -99999 -99999 -99999 -99999 -99999 -99999 -99999 -99999 -99999 -99999 -99999 -99999 -99999 -99999 -99999 -99999 -99999 -99999 -99999 -99999 -99999 -99999 -99999 -99999 -99999 -99999 -99999 -99999 -99999
-99999 -99999 -99999 -99999 -99999 -99999 -99999 -99999 -99999 -99999 -99999 -99999 -99999 -99999 -99999 -99999 -99999 -99999 -99999 -99999 -99999 -99999 -99999 -99999 -99999 -99999 -99999 -99999 -99999 -99999 -99999 -99999 -99999 -99999 -99999 -99999 -99999 -99999 -99999 -99999 -99999 -99999 -99999 -99999 -99999 -99999 -99999 -99999 -99999 -99999 -99999 -99999 -99999 -99999 -99999 -99999 -99999 -99999 -99999 -99999 -99999 -99999 -99999 -99999 -99999 -99999 -99999 -99999 -99999 -99999 -99999 -99999 -99999 -99999 -99999 -99999 -99999 -99999 -99999 -99999 -99999 234 226 213 204 213 224 253 335 386 360 291 252 265 243 239 174 176 182 171 167 326 419 362 270 231 187 223 302 632 561 590 669 683 656 645 627 620 604 596 568 552 529 520 437 450 419 474 665 686 421 304 297 280 292 290 283 277 301 337 385 398 482 684 663 621 592 643 635 696 690 776 676 738 843 837 827 970 1068 897 770 843 910 922 850 827 655 816 814 847 738 708 614 618 600 587 633 587 471 527 577 499 514 506 496 512 565 930 867 958 920 837 861 822 831 792 803 759 695 763 612 357 308 292 265 286 371 225 138 59 7 -99999 -99999 -99999 -99999 -99999 -99999 -99999 -99999 -99999 -99999 -99999 -99999 -99999 -99999 -99999 -99999 -99999 -99999 -99999 -99999 -99999 -99999 -99999 -99999 -99999 -99999 -99999 -99999 -99999 -99999 -99999 -99999 -99999 -99999 -99999 -99999 -99999 -99999 -99999 -99999 -99999 -99999 -99999 -99999 -99999 -99999 -99999 -99999 -99999 -99999 -99999 -99999 -99999 -99999 -99999 -99999 -99999 -99999 -99999 -99999
-99999 -99999 -99999 -99999 -99999 -99999 -99999 -99999 -99999 -99999 -99999 -99999 -99999 -99999 -99999 -99999 -99999 -99999 -99999 -99999 -99999 -99999 -99999 -99999 -99999 -99999 -99999 -99999 -99999 -99999 -99999 -99999 -99999 -99999 -99999 -99999 -99999 -99999 -99999 -99999 -99999 -99999 -99999 -99999 -99999 -99999 -99999 -99999 -99999 -99999 -99999 -99999 -99999 -99999 -99999 -99999 -99999 -99999 -99999 -99999 -99999 -99999 -99999 -99999 -99999 -99999 -99999 -99999 -99999 -99999 -99999 -99999 -99999 -99999 -99999 -99999 -99999 -99999 -99999 -99999 -99999 -99999 218 206 207 222 328 415 308 383 284 239 211 202 227 234 194 156 167 167 247 478 423 303 297 229 201 189 200 212 421 701 734 618 536 546 589 585 587 640 602 620 578 525 475 445 448 409 481 449 339 332 312 298 298 310 320 306 308 337 350 459 532 719 670 634 632 648 729 759 859 874 724 838 1036 1135 1016 998 1060 991 920 886 811 678 642 649 578 686 671 728 676 645 599 568 549 511 520 478 546 735 627 523 523 523 530 556 603 1053 858 888 884 828 790 776 813 780 766 750 810 848 656 372 382 337 310 168 184 162 88 34 5 -99999 -99999 -99999 -99999 -99999 -99999 -99999 -99999 -99999 -99999 -99999 -99999 -99999 -99999 -99999 -99999 -99999 -99999 -99999 -99999 -99999 -99999 -99999 -99999 -99999 -99999 -99999 -99999 -99999 -99999 -99999 -99999 -99999 -99999 -99999 -99999 -99999 -99999 -99999 -99999 -99999 -99999 -99999 -99999 -99999 -99999 -99999 -99999 -99999 -99999 -99999 -99999 -99999 -99999 -99999 -99999 -99999 -99999 -99999 -99999
-99999 -99999 -99999 -99999 -99999 -99999 -99999 -99999 -99999 -99999 -99999 -99999 -99999 -99999 -99999 -99999 -99999 -99999 -99999 -99999 -99999 -99999 -99999 -99999 -99999 -99999 -99999 -99999 -99999 -99999 -99999 -99999 -99999 -99999 -99999 -99999 -99999 -99999 -99999 -99999 -99999 -99999 -99999 -99999 -99999 -99999 -99999 -99999 -99999 -99999 -99999 -99999 -99999 -99999 -99999 -99999 -99999 -99999 -99999 -99999 -99999 -99999 -99999 -99999 -99999 -99999 -99999 -99999 -99999 -99999 -99999 -99999 -99999 -99999 -99999 -99999 -99999 -99999 -99999 -99999 -99999 -99999 216 214 212 222 277 626 375 324 264 240 196 183 200 259 160 141 148 182 460 427 251 377 263 252 198 174 166 182 366 683 758 564 391 522 572 458 566 671 642 653 548 457 408 396 394 407 448 534 436 367 321 307 310 348 392 348 320 371 360 392 468 648 699 719 682 655 699 790 1050 1075 953 986 1078 1181 1086 1024 1024 952 931 914 808 799 798 823 602 524 552 622 661 624 578 547 498 477 487 582 713 794 639 535 511 554 570 665 657 1015 906 829 820 806 830 908 849 852 860 863 778 663 523 528 325 270 253 198 315 180 96 31 9 -99999 -99999 -99999 -99999 -99999 -99999 -99999 -99999 -99999 -99999 -99999 -99999 -99999 -99999 -99999 -99999 -99999 -99999 -99999 -99999 -99999 -99999 -99999 -99999 -99999 -99999 -99999 -99999 -99999 -99999 -99999 -99999 -99999 -99999 -99999 -99999 -99999 -99999 -99999 -99999 -99999 -99999 -99999 -99999 -99999 -99999 -99999 -99999 -99999 -99999 -99999 -99999 -99999 -99999 -99999 -99999 -99999 -99999 -99999 -99999
-99999 -99999 -99999 -99999 -99999 -99999 -99999 -99999 -99999 -99999 -99999 -99999 -99999 -99999 -99999 -99999 -99999 -99999 -99999 -99999 -99999 -99999 -99999 -99999 -99999 -99999 -99999 -99999 -99999 -99999 -99999 -99999 -99999 -99999 -99999 -99999 -99999 -99999 -99999 -99999 -99999 -99999 -99999 -99999 -99999 -99999 -99999 -99999 -99999 -99999 -99999 -99999 -99999 -99999 -99999 -99999 -99999 -99999 -99999 -99999 -99999 -99999 -99999 -99999 -99999 -99999 -99999 -99999 -99999 -99999 -99999 -99999 -99999 -99999 -99999 -99999 -99999 -99999 -99999 -99999 -99999 -99999 227 218 222 226 280 692 559 308 278 226 198 164 195 200 138 133 172 306 397 184 214 248 176 190 184 150 146 192 299 584 734 513 316 385 498 485 427 462 495 643 578 468 444 437 432 438 400 373 374 332 326 336 340 349 356 379 385 379 390 450 462 682 766 737 711 719 700 778 954 1068 1074 986 988 1136 1102 972 973 897 925 905 874 942 929 850 613 534 531 555 650 603 542 504 482 529 655 668 823 783 673 538 513 577 627 759 784 916 906 880 666 793 887 900 848 797 718 681 660 598 440 376 246 186 237 190 223 153 85 36 15 -99999 -99999 -99999 -99999 -99999 -99999 -99999 -99999 -99999 -99999 -99999 -99999 -99999 -99999 -99999 -99999 -99999 -99999 -99999 -99999 -99999 -99999 -99999 -99999 -99999 -99999 -99999 -99999 -99999 -99999 -99999 -99999 -99999 -99999 -99999 -99999 -99999 -99999 -99999 -99999 -99999 -99999 -99999 -99999 -99999 -99999 -99999 -99999 -99999 -99999 -99999 -99999 -99999 -99999 -99999 -99999 -99999 -99999 -99999 -99999
-99999 -99999 -99999 -99999 -99999 -99999 -99999 -99999 -99999 -99999 -99999 -99999 -99999 -99999 -99999 -99999 -99999 -99999 -99999 -99999 -99999 -99999 -99999 -99999 -99999 -99999 -99999 -99999 -99999 -99999 -99999 -99999 -99999 -99999 -99999 -99999 -99999 -99999 -99999 -99999 -99999 -99999 -99999 -99999 -99999 -99999 -99999 -99999 -99999 -99999 -99999 -99999 -99999 -99999 -99999 -99999 -99999 -99999 -99999 -99999 -99999 -99999 -99999 -99999 -99999 -99999 -99999 -99999 -99999 -99999 -99999 -99999 -99999 -99999 -99999 -99999 -99999 -99999 -99999 -99999 -99999 -99999 245 241 238 241 386 645 393 199 197 176 203 153 171 149 126 124 252 396 166 136 156 168 159 141 145 142 144 161 213 333 660 533 298 320 396 414 333 364 454 566 504 469 486 436 402 392 394 369 380 405 389 347 390 448 411 387 459 424 446 513 600 740 788 759 854 782 818 828 1002 978 977 962 970 982 1012 909 986 928 857 826 795 801 923 840 625 533 513 520 571 590 547 482 540 651 735 772 836 755 640 580 558 604 754 871 843 806 798 770 575 758 823 842 801 749 743 755 696 416 317 253 243 168 197 258 233 137 72 54 28 -99999 -99999 -99999 -99999 -99999 -99999 -99999 -99999 -99999 -99999 -99999 -99999 -99999 -99999 -99999 -99999 -99999 -99999 -99999 -99999 -99999 -99999 -99999 -99999 -99999 -99999 -99999 -99999 -99999 -99999 -99999 -99999 -99999 -99999 -99999 -99999 -99999 -99999 -99999 -99999 -99999 -99999 -99999 -99999 -99999 -99999 -99999 -99999 -99999 -99999 -99999 -99999 -99999 -99999 -99999 -99999 -99999 -99999 -99999 -99999
-99999 -99999 -99999 -99999 -99999 -99999 -99999 -99999 -99999 -99999 -99999 -99999 -99999 -99999 -99999 -99999 -99999 -99999 -99999 -99999 -99999 -99999 -99999 -99999 -99999 -99999 -99999 -99999 -99999 -99999 -99999 -99999 -99999 -99999 -99999 -99999 -99999 -99999 -99999 -99999 -99999 -99999 -99999 -99999 -99999 -99999 -99999 -99999 -99999 -99999 -99999 -99999 -99999 -99999 -99999 -99999 -99999 -99999 -99999 -99999 -99999 -99999 -99999 -99999 -99999 -99999 -99999 -99999 -99999 -99999 -99999 -99999 -99999 -99999 -99999 -99999 -99999 -99999 -99999 -99999 -99999 -99999 282 284 268 263 281 269 204 150 142 144 166 132 203 165 122 138 320 276 127 117 119 166 138 133 134 135 140 169 195 565 641 503 287 310 351 300 297 366 394 522 508 694 631 511 491 479 408 499 557 394 359 377 385 450 570 532 408 468 627 538 677 783 839 804 874 871 925 983 1044 986 939 890 904 896 942 921 959 924 830 697 644 664 878 904 816 697 607 512 505 510 502 488 574 648 714 780 847 790 671 575 598 698 834 897 876 847 761 674 559 765 656 708 748 653 691 782 630 421 384 330 395 355 323 252 196 145 87 46 10 -99999 -99999 -99999 -99999 -99999 -99999 -99999 -99999 -99999 -99999 -99999 -99999 -99999 -99999 -99999 -99999 -99999 -99999 -99999 -99999 -99999 -99999 -99999 -99999 -99999 -99999 -99999 -99999 -99999 -99999 -99999 -99999 -99999 -99999 -99999 -99999 -99999 -99999 -99999 -99999 -99999 -99999 -99999 -99999 -99999 -99999 -99999 -99999 -99999 -99999 -99999 -99999 -99999 -99999 -99999 -99999 -99999 -99999 -99999 -99999
